ply
format ascii 1.0
element vertex 1187
property float x
property float y
property float z
property uchar red
property uchar green
property uchar blue
end_header
-0.497969 -0.263226 -0.102233 99 198 155
-0.512722 -0.277282 -0.105944 99 198 155
-0.506809 -0.280201 -0.104428 99 198 155
-0.504327 -0.284881 -0.103780 99 198 155
-0.481507 -0.277802 -0.097990 99 199 155
-0.493246 -0.296832 -0.100916 99 199 155
-0.490516 -0.301559 -0.100205 99 199 155
-0.510911 -0.320855 -0.105335 99 198 155
-0.504678 -0.323622 -0.103738 99 198 155
-0.498440 -0.326297 -0.102140 99 198 155
-0.514902 -0.344230 -0.106273 99 198 155
-0.508516 -0.346940 -0.104637 99 198 155
-0.498923 -0.347301 -0.102192 99 198 155
-0.508522 -0.361136 -0.104591 99 198 155
-0.511527 -0.370642 -0.105325 99 198 155
-0.501843 -0.370847 -0.102857 99 198 155
-0.489081 -0.368519 -0.099614 99 199 155
-0.507375 -0.390059 -0.104201 99 198 155
-0.494569 -0.387603 -0.100947 99 199 155
-0.491011 -0.392338 -0.100025 99 199 155
-0.484446 -0.394453 -0.098345 99 199 155
-0.480825 -0.399089 -0.097407 99 199 155
-1.404034 -1.291778 -0.329580 80 161 174
-1.395049 -1.308007 -0.327236 81 162 173
-1.385892 -1.324176 -0.324849 81 162 173
-1.359672 -1.323769 -0.318171 81 163 173
-1.336373 -1.325750 -0.312229 82 164 172
-1.281904 -1.370521 -0.298202 83 167 171
-1.264019 -1.377038 -0.293624 83 167 171
-1.238228 -1.374518 -0.287062 84 168 170
-0.755633 -0.901903 -0.165718 94 188 160
-0.772340 -0.939764 -0.169846 93 187 161
-0.781013 -0.968769 -0.171958 93 187 161
-0.767255 -0.970040 -0.168448 94 188 160
-0.759027 -0.976855 -0.166329 94 188 160
-0.747857 -0.980842 -0.163471 94 188 160
-0.741229 -0.991186 -0.161747 94 189 160
-0.727660 -0.991759 -0.158288 94 189 160
-0.716275 -0.995506 -0.155376 95 190 159
-0.704887 -0.999121 -0.152462 95 190 159
-0.704869 -1.018808 -0.152391 95 190 159
-0.682272 -1.005831 -0.146679 95 191 159
-0.671050 -1.008930 -0.143809 96 192 158
-0.668264 -1.025336 -0.143044 96 192 158
-0.656928 -1.028260 -0.140147 96 192 158
-0.639149 -1.021059 -0.135642 96 193 158
-0.636155 -1.037224 -0.134825 96 193 158
-0.618541 -1.029663 -0.130363 97 194 157
-0.613286 -1.042319 -0.128982 97 194 157
-0.603744 -1.048174 -0.126531 97 194 157
-0.596263 -1.057296 -0.124595 97 195 157
-0.582775 -1.056014 -0.121163 97 195 157
-0.571415 -1.057966 -0.118262 98 196 156
-0.567255 -1.073977 -0.117149 98 196 156
-0.552179 -1.068667 -0.113326 98 197 156
-0.544175 -1.077482 -0.111257 98 197 156
-0.536242 -1.086141 -0.109207 98 197 156
-0.524590 -1.087655 -0.106234 99 198 155
-0.509780 -1.081735 -0.102481 99 198 155
-0.503176 -1.093826 -0.100758 99 199 155
-0.491553 -1.094969 -0.097793 99 199 155
-0.478557 -1.092245 -0.094492 100 200 154
-0.468564 -1.096787 -0.091931 100 200 154
-0.461746 -1.108516 -0.090154 100 200 154
-0.454567 -1.120289 -0.088286 100 201 154
-0.438716 -1.109671 -0.084283 100 201 154
-0.437051 -1.136177 -0.083770 100 201 154
-0.424088 -1.132760 -0.080479 101 202 153
-0.413727 -1.136770 -0.077826 101 202 153
-0.402209 -1.136843 -0.074892 101 203 153
-0.390532 -1.136863 -0.071917 101 203 153
-0.385306 -1.155636 -0.070523 102 204 152
-0.373527 -1.155467 -0.067523 102 204 152
-0.361980 -1.155107 -0.064582 102 205 152
-0.353344 -1.162086 -0.062359 102 205 152
-0.341412 -1.161633 -0.059321 102 205 152
-0.331863 -1.168682 -0.056864 103 206 151
-0.320979 -1.171850 -0.054081 103 206 151
-0.311266 -1.178720 -0.051583 103 207 151
-0.301255 -1.185558 -0.049010 103 207 151
-0.286694 -1.172836 -0.045343 104 208 150
-0.278455 -1.187234 -0.043196 104 208 150
-0.267602 -1.189825 -0.040423 104 208 150
-0.259194 -1.204039 -0.038233 104 209 150
-0.247984 -1.206485 -0.035369 104 209 150
-0.235453 -1.200929 -0.032195 105 210 149
-0.227130 -1.218868 -0.030015 105 210 149
-0.213954 -1.209142 -0.026691 105 211 149
-0.204623 -1.222976 -0.024267 105 211 149
-0.191629 -1.212992 -0.020991 106 212 148
-0.180907 -1.218726 -0.018240 106 212 148
-0.171900 -1.236216 -0.015886 106 212 148
-0.160603 -1.237768 -0.013003 106 213 148
-0.150461 -1.251153 -0.010375 106 213 148
-0.138605 -1.248519 -0.007363 107 214 147
-0.128144 -1.261709 -0.004654 107 214 147
-0.115566 -1.250883 -0.001486 107 215 147
-0.103925 -1.251903 0.001483 107 215 147
-0.094146 -1.276734 0.004058 108 216 146
-0.081787 -1.269556 0.007182 108 216 146
-0.069986 -1.266235 0.010177 108 217 146
-0.058917 -1.278784 0.013039 108 217 146
-0.047149 -1.283240 0.016052 109 218 145
-0.035334 -1.279577 0.019049 109 218 145
-0.023429 -1.279802 0.022083 109 219 145
-0.011739 -1.279907 0.025061 109 219 145
0.000167 -1.279898 0.028094 110 220 144
0.012022 -1.291773 0.031154 110 220 144
0.023854 -1.283530 0.034141 110 221 144
0.035576 -1.283176 0.037126 110 221 144
0.047624 -1.290700 0.040220 111 222 143
0.059832 -1.294097 0.043341 111 222 143
0.072126 -1.301376 0.046498 111 223 143
0.083678 -1.292556 0.049411 111 223 143
0.095225 -1.299667 0.052377 111 223 143
0.107658 -1.302581 0.055554 112 224 142
0.119168 -1.297430 0.058468 112 224 142
0.132073 -1.304076 0.061778 112 225 142
0.143286 -1.294697 0.064603 112 225 142
0.154119 -1.285247 0.067331 113 226 141
0.165009 -1.275670 0.070073 113 226 141
0.174602 -1.258085 0.072457 113 227 141
0.183674 -1.240463 0.074709 113 227 141
0.192647 -1.222742 0.076935 113 227 141
0.203338 -1.216773 0.079638 114 228 140
0.212307 -1.202883 0.081876 114 228 140
0.228731 -1.228126 0.086145 114 229 140
0.240932 -1.229654 0.089259 114 229 140
0.252154 -1.227192 0.092109 115 230 139
0.263561 -1.224571 0.095006 115 230 139
0.275836 -1.225729 0.098137 115 231 139
0.293737 -1.250051 0.102779 116 232 138
0.319623 -1.305171 0.109559 116 233 138
0.329749 -1.294151 0.112102 116 233 138
0.345924 -1.306172 0.116263 117 234 137
0.355697 -1.294998 0.118715 117 234 137
0.363298 -1.276020 0.120587 117 235 137
0.375154 -1.272296 0.123595 117 235 137
0.404438 -1.325670 0.131235 118 236 136
0.408258 -1.294951 0.132104 118 236 136
0.757826 -1.941537 0.223336 125 251 129
1.042089 -2.525361 0.297720 131 246 123
1.078015 -2.544131 0.306936 132 244 122
1.112793 -2.558774 0.315845 133 243 121
1.147508 -2.573169 0.324736 134 241 120
1.192983 -2.608577 0.336441 135 239 119
1.227366 -2.618141 0.345232 135 238 119
1.260647 -2.632442 0.353758 136 237 118
1.300892 -2.651836 0.364076 137 235 117
1.341614 -2.670671 0.374513 138 233 116
1.380983 -2.685412 0.384592 138 232 116
1.423063 -2.702869 0.395370 139 230 115
1.472697 -2.733963 0.408119 140 228 114
1.511516 -2.743481 0.418041 141 226 113
1.564318 -2.776655 0.431603 142 224 112
1.586118 -2.754085 0.437081 143 223 111
1.595544 -2.710854 0.439336 143 223 111
1.762177 -2.867514 0.482314 146 216 108
1.785043 -2.842818 0.488055 147 215 107
1.768564 -2.758299 0.483572 147 215 107
1.791982 -2.737265 0.489467 147 215 107
1.795332 -2.686427 0.490149 147 214 107
1.873892 -2.746831 0.510365 149 211 105
1.953738 -2.805918 0.530905 150 208 104
1.917791 -2.699382 0.521389 150 209 104
1.709044 -2.311156 0.466902 145 218 109
1.299447 -1.625648 0.360247 136 236 118
1.334523 -1.637067 0.369220 137 234 117
1.367402 -1.644909 0.377623 138 233 116
1.339454 -1.579904 0.370284 137 234 117
1.351515 -1.563516 0.373301 138 233 116
1.363395 -1.547035 0.376272 138 233 116
1.383015 -1.539243 0.381243 138 232 116
1.397281 -1.525404 0.384831 138 232 116
1.389865 -1.488436 0.382817 138 232 116
1.403658 -1.474531 0.386284 139 231 115
1.450286 -1.494327 0.398229 140 229 114
1.450514 -1.465600 0.398190 140 229 114
1.441696 -1.428983 0.395820 139 230 115
1.452109 -1.411832 0.398415 140 229 114
1.485141 -1.416272 0.406845 140 228 114
1.472379 -1.377310 0.403462 140 228 114
1.466592 -1.348015 0.401889 140 229 114
1.514149 -1.364857 0.414061 141 227 113
1.544470 -1.365303 0.421787 141 226 113
1.509713 -1.283583 0.412657 141 227 113
1.584981 -1.321151 0.431958 142 224 112
1.658041 -1.354864 0.450683 144 221 110
1.698162 -1.360331 0.460922 145 219 109
1.716926 -1.348213 0.465662 145 218 109
1.757388 -1.352546 0.475984 146 217 108
1.745073 -1.315856 0.472723 146 217 108
1.754094 -1.296120 0.474954 146 217 108
1.750208 -1.267160 0.473867 146 217 108
1.825857 -1.294898 0.493232 147 214 107
1.879658 -1.305652 0.506973 148 212 106
1.920874 -1.306672 0.517476 149 210 105
1.962280 -1.306994 0.528025 150 208 104
1.984198 -1.293824 0.533565 151 207 103
2.048925 -1.307627 0.550100 152 205 102
2.120723 -1.324397 0.568447 153 202 101
2.126290 -1.299195 0.569780 154 201 100
2.108098 -1.260005 0.565013 153 202 101
2.116365 -1.237032 0.567042 153 202 101
2.127792 -1.215945 0.569882 154 201 100
2.118564 -1.183348 0.567421 153 202 101
2.115782 -1.154780 0.566616 153 202 101
2.119555 -1.130039 0.567494 153 202 101
2.112680 -1.099939 0.565641 153 202 101
2.129788 -1.082422 0.569940 154 201 100
2.132787 -1.057753 0.570621 154 201 100
2.128680 -1.029354 0.569479 153 202 101
2.152279 -1.014789 0.575441 154 201 100
2.151013 -0.988488 0.575030 154 201 100
2.145901 -0.960719 0.573634 154 201 100
2.158328 -0.940907 0.576733 154 200 100
2.166998 -0.919420 0.578869 154 200 100
2.171870 -0.896367 0.580033 154 200 100
2.176513 -0.873302 0.581138 154 200 100
2.188180 -0.853049 0.584041 155 199 99
2.196032 -0.831271 0.585968 155 199 99
2.192043 -0.807383 0.584871 155 199 99
2.203267 -0.786476 0.587660 155 199 99
2.199473 -0.760749 0.586607 155 199 99
2.206592 -0.738465 0.588345 155 198 99
2.202403 -0.712531 0.587191 155 199 99
2.194226 -0.685595 0.585017 155 199 99
2.200520 -0.663767 0.586547 155 199 99
2.214182 -0.643642 0.589959 155 198 99
2.212709 -0.619129 0.589501 155 198 99
2.237239 -0.601752 0.595691 156 197 98
2.223952 -0.574656 0.592215 155 198 99
2.206694 -0.546549 0.587724 155 199 99
2.065145 -0.467984 0.551400 152 204 102
2.073289 -0.447889 0.553407 152 204 102
2.088854 -0.429234 0.557309 152 204 102
5.581807 -0.971388 1.448953 225 59 29
5.430013 -0.888692 1.410005 222 65 32
5.269531 -0.807981 1.368850 218 72 36
5.130963 -0.734811 1.333304 215 78 39
4.999333 -0.664585 1.299535 213 83 41
4.855327 -0.595673 1.262618 210 89 44
4.721975 -0.531881 1.228432 207 95 47
4.707541 -0.482196 1.224587 207 95 47
4.758249 -0.438902 1.237359 208 93 46
4.766082 -0.391146 1.239193 208 93 46
4.773406 -0.344136 1.240900 208 93 46
4.807429 -0.297831 1.249411 209 91 45
4.821673 -0.249872 1.252878 209 91 45
4.850960 -0.202300 1.260178 210 89 44
4.868154 -0.154673 1.264398 210 89 44
4.892679 -0.106011 1.270481 210 88 44
6.459812 -0.010672 1.669380 243 23 11
6.230968 0.052611 1.610870 238 32 16
0.049517 -1.181750 0.058300 112 224 142
0.058385 -1.173070 0.063269 112 225 142
0.068464 -1.184241 0.068988 113 226 141
0.079925 -1.211235 0.075540 113 227 141
0.090494 -1.222160 0.081535 114 228 140
0.098159 -1.197144 0.085770 114 229 140
0.106041 -1.180043 0.090156 115 230 139
0.117927 -1.202568 0.096932 115 231 139
0.252655 -1.688460 0.174514 121 243 133
0.469811 -2.244075 0.298795 132 245 122
0.569473 -2.337653 0.355288 136 236 118
0.585336 -2.319847 0.364170 137 235 117
0.609761 -2.336445 0.377994 138 233 116
0.633451 -2.348910 0.391389 139 230 115
0.655236 -2.353468 0.403684 140 228 114
0.679719 -2.365206 0.417525 141 226 113
0.705225 -2.380547 0.431954 142 224 112
0.710022 -2.327748 0.434479 143 223 111
0.739180 -2.353891 0.451003 144 221 110
0.734812 -2.274699 0.448274 144 221 110
0.440598 -1.177988 0.278732 130 249 124
0.462974 -1.205912 0.291439 131 247 123
0.471034 -1.197275 0.295954 131 246 123
0.492224 -1.221187 0.307979 132 244 122
0.469707 -1.113759 0.294924 131 246 123
0.484630 -1.123046 0.303367 132 245 122
0.479074 -1.085877 0.300110 132 245 122
0.502321 -1.112494 0.313303 133 243 121
0.505962 -1.096641 0.315302 133 243 121
0.504505 -1.070204 0.314392 133 243 121
0.509527 -1.057811 0.317181 133 243 121
0.521197 -1.059356 0.323764 134 241 120
0.527792 -1.050305 0.327451 134 241 120
0.514393 -1.003633 0.319741 133 242 121
0.518672 -0.991286 0.322112 133 242 121
0.515408 -0.965384 0.320184 133 242 121
0.517258 -0.949844 0.321174 133 242 121
0.534259 -0.961028 0.330795 134 240 120
0.537988 -0.948633 0.332856 134 240 120
0.539472 -0.933042 0.333639 134 240 120
0.531001 -0.900945 0.328756 134 241 120
0.550141 -0.914850 0.339592 135 239 119
0.563313 -0.918805 0.347030 135 238 119
0.566450 -0.906315 0.348757 136 237 118
0.556950 -0.874614 0.343294 135 238 119
0.553521 -0.837438 0.341236 135 239 119
0.549222 -0.815929 0.338740 135 239 119
0.557839 -0.813159 0.343588 135 238 119
0.562048 -0.804091 0.345930 135 238 119
0.610618 -0.840856 0.373432 138 233 116
0.619528 -0.837352 0.378443 138 233 116
0.621404 -0.824862 0.379458 138 232 116
0.618612 -0.806322 0.377822 138 233 116
0.622623 -0.796763 0.380051 138 232 116
0.612192 -0.769753 0.374079 138 233 116
0.601505 -0.742898 0.367965 137 234 117
0.592864 -0.719210 0.363014 137 235 117
0.598426 -0.712998 0.366128 137 235 117
0.596982 -0.697759 0.365263 137 235 117
0.592647 -0.680064 0.362760 137 235 117
0.603230 -0.679033 0.368722 137 234 117
0.608686 -0.672468 0.371775 137 234 117
0.596319 -0.646698 0.364717 137 235 117
0.591310 -0.629327 0.361835 137 235 117
0.596366 -0.622891 0.364663 137 235 117
0.606700 -0.621548 0.370484 137 234 117
0.601133 -0.604526 0.367289 137 234 117
0.598096 -0.590132 0.365528 137 235 117
0.600153 -0.581078 0.366657 137 234 117
0.599502 -0.569388 0.366251 137 235 117
0.576845 -0.537961 0.353373 136 237 118
0.594962 -0.543872 0.363605 137 235 117
0.588276 -0.527675 0.359782 136 236 118
0.614855 -0.540372 0.374807 138 233 116
0.596775 -0.514714 0.364529 137 235 117
0.584055 -0.494054 0.357289 136 236 118
0.605062 -0.501574 0.369156 137 234 117
0.586289 -0.476629 0.358490 136 236 118
0.607379 -0.483758 0.370402 137 234 117
0.617126 -0.481474 0.375888 138 233 116
0.615161 -0.470396 0.374744 138 233 116
0.616074 -0.461434 0.375228 138 233 116
0.653155 -0.468824 0.396154 139 230 115
0.671902 -0.471912 0.406732 140 228 114
0.742828 -0.499100 0.446804 144 221 110
0.758960 -0.498922 0.455896 144 220 110
0.784374 -0.504080 0.470239 145 218 109
0.794543 -0.499400 0.475956 146 217 108
0.783223 -0.481323 0.469514 145 218 109
0.777797 -0.467359 0.466408 145 218 109
0.790940 -0.464192 0.473806 146 217 108
0.791535 -0.453881 0.474107 146 217 108
0.782686 -0.438238 0.469066 145 218 109
0.792501 -0.433180 0.474581 146 217 108
0.789703 -0.421128 0.472963 146 217 108
0.796254 -0.414229 0.476633 146 217 108
0.770899 -0.391099 0.462262 145 219 109
0.793262 -0.392146 0.474871 146 217 108
0.806113 -0.388001 0.482101 146 216 108
0.783375 -0.367351 0.469215 145 218 109
0.796096 -0.363107 0.476371 146 217 108
0.792492 -0.351665 0.474301 146 217 108
0.801888 -0.345725 0.479577 146 216 108
0.788268 -0.330300 0.471848 146 217 108
0.800821 -0.325586 0.478908 146 216 108
0.803423 -0.316943 0.480345 146 216 108
0.796075 -0.304367 0.476161 146 217 108
0.795188 -0.294564 0.475628 146 217 108
0.790926 -0.283468 0.473188 146 217 108
0.789850 -0.273792 0.472549 146 217 108
0.798771 -0.267318 0.477556 146 216 108
0.810972 -0.261909 0.484415 147 215 107
0.806369 -0.250932 0.481784 146 216 108
0.778011 -0.233261 0.465739 145 218 109
0.793429 -0.228550 0.474414 146 217 108
0.788471 -0.218142 0.471584 146 217 108
0.783447 -0.207701 0.468717 145 218 109
0.781727 -0.198239 0.467715 145 218 109
0.793534 -0.192252 0.474351 146 217 108
0.795090 -0.183533 0.475198 146 217 108
0.793124 -0.174218 0.474059 146 217 108
0.770528 -0.160573 0.461276 145 219 109
0.799278 -0.157607 0.477472 146 216 108
0.793669 -0.147566 0.474276 146 217 108
0.791392 -0.138416 0.472962 146 217 108
0.806305 -0.131952 0.481346 146 216 108
0.786621 -0.120140 0.470211 145 218 109
0.787585 -0.111500 0.470725 145 218 109
0.798849 -0.104350 0.477050 146 217 108
0.806614 -0.096396 0.481400 146 216 108
0.772680 -0.083987 0.462231 145 219 109
0.797650 -0.077840 0.476285 146 217 108
0.794782 -0.068949 0.474638 146 217 108
0.816186 -0.061783 0.486679 147 215 107
0.781873 -0.050764 0.467301 145 218 109
0.799671 -0.043106 0.477307 146 217 108
0.793032 -0.034196 0.473535 146 217 108
0.782849 -0.024842 0.467763 145 218 109
0.790002 -0.016231 0.471766 146 217 108
0.824959 -0.007558 0.491441 147 214 107
0.786667 0.001585 0.469826 145 218 109
-1.190357 0.403794 -1.132870 15 31 239
-1.201350 0.391333 -1.143574 14 29 240
-1.206701 0.376858 -1.148757 14 28 240
-1.206375 0.360585 -1.148383 14 29 240
-1.177896 0.336537 -1.120461 16 33 238
-1.160463 0.316064 -1.103350 18 36 236
-1.168149 0.302717 -1.110819 17 35 237
-1.184201 0.291303 -1.126472 16 32 238
-1.163514 0.271131 -1.106181 17 35 237
-1.131399 0.248717 -1.074711 20 40 234
-1.166953 0.241388 -1.109443 17 35 237
-1.171357 0.227042 -1.113700 17 34 237
-1.144456 0.207161 -1.087335 19 38 235
-1.137287 0.191100 -1.080272 20 40 234
-1.135685 0.176138 -1.078656 20 40 234
-1.142516 0.162463 -1.085287 19 39 235
-1.152089 0.149279 -1.094601 18 37 236
-1.147353 0.133900 -1.089920 19 38 235
-1.128252 0.117155 -1.071191 20 41 234
-1.123296 0.102234 -1.066296 21 42 233
-1.106817 0.086546 -1.050133 22 44 232
-1.118784 0.073458 -1.061787 21 43 233
-1.113530 0.058883 -1.056602 21 43 233
-1.099602 0.044101 -1.042936 23 46 231
-1.099870 0.030082 -1.043152 23 46 231
-1.085743 0.016110 -1.029294 24 48 230
-1.091548 0.002284 -1.034922 23 47 231
-1.105841 -0.011783 -1.048848 22 45 232
-1.100020 -0.025743 -1.043110 23 46 231
-1.085534 -0.038977 -1.028903 24 48 230
-1.105264 -0.053798 -1.048142 22 45 232
-1.099170 -0.067528 -1.042138 23 46 231
-1.084417 -0.080458 -1.027672 24 48 230
-1.086729 -0.094263 -1.029885 24 48 230
-1.100349 -0.109549 -1.043149 23 46 231
-1.099602 -0.123568 -1.042371 23 46 231
-1.104459 -0.138300 -1.047070 22 45 232
-1.100675 -0.151971 -1.043324 23 46 231
-1.108199 -0.167033 -1.050629 22 44 232
-1.104230 -0.180678 -1.046702 22 45 232
-1.094497 -0.193216 -1.037146 23 47 231
-1.096056 -0.207436 -1.038622 23 46 231
-1.106012 -0.223452 -1.048301 22 45 232
-1.096059 -0.235422 -1.038530 23 46 231
-1.100156 -0.250418 -1.042484 23 46 231
-1.098509 -0.264161 -1.040828 23 46 231
-1.091144 -0.276435 -1.033587 23 47 231
-1.108995 -0.295379 -1.050974 22 44 232
-1.087424 -0.303666 -1.029859 24 48 230
-1.088270 -0.317813 -1.030638 24 48 230
-1.069422 -0.326208 -1.012184 25 51 229
-1.075649 -0.342259 -1.018217 25 50 229
-1.053929 -0.349132 -0.996961 26 53 228
-1.048866 -0.361311 -0.991971 27 54 227
-1.040961 -0.372383 -0.984205 27 55 227
-1.046814 -0.388493 -0.989872 27 54 227
-1.022219 -0.392937 -0.965814 29 58 225
-1.016899 -0.404570 -0.960575 29 59 225
-1.000542 -0.411515 -0.944561 31 62 223
-0.992383 -0.421621 -0.936550 31 63 223
-0.989627 -0.433986 -0.933814 31 63 223
-0.981352 -0.443814 -0.925692 32 65 222
-0.973087 -0.453234 -0.917580 33 66 221
-0.972829 -0.466671 -0.917283 33 66 221
-0.967087 -0.477432 -0.911633 33 67 221
-0.953228 -0.483925 -0.898063 34 69 220
-0.934012 -0.487264 -0.879266 36 72 218
-0.938832 -0.503247 -0.883924 35 71 219
-0.935547 -0.514927 -0.880674 36 72 218
-0.937482 -0.529609 -0.882516 36 72 218
-0.926113 -0.536603 -0.871378 37 74 217
-0.922613 -0.548120 -0.867917 37 74 217
-0.924272 -0.562835 -0.869489 37 74 217
-0.923207 -0.575982 -0.868405 37 74 217
-0.922047 -0.589147 -0.867226 37 74 217
-0.923450 -0.603829 -0.868548 37 74 217
-0.906643 -0.606542 -0.852109 38 77 216
-0.895002 -0.612450 -0.840708 39 78 215
-0.901213 -0.630839 -0.846718 39 78 215
-0.902179 -0.645734 -0.847612 38 77 216
-0.907995 -0.664687 -0.853234 38 76 216
-0.885815 -0.663196 -0.831557 40 80 214
-0.878826 -0.672665 -0.824692 40 81 214
-0.871700 -0.682217 -0.817694 41 82 213
-0.881926 -0.705545 -0.827612 40 81 214
-0.857383 -0.700727 -0.803635 42 85 212
-0.852642 -0.711768 -0.798963 42 85 212
-0.816123 -0.695467 -0.763318 45 91 209
-1.395074 -1.329874 -1.327151 0 0 255
-1.379055 -1.341048 -1.311453 1 2 253
-1.360514 -1.349910 -1.293298 2 5 252
-1.335214 -1.350977 -1.268562 4 9 250
-1.325910 -1.368592 -1.259406 5 10 249
-1.302990 -1.371202 -1.236992 7 14 247
-1.291287 -1.385926 -1.225501 8 16 246
-1.272940 -1.392693 -1.207543 9 19 245
-1.209896 -1.349061 -1.146059 14 29 240
-0.749592 -0.895315 -0.697604 51 102 203
-0.747821 -0.910246 -0.695822 51 102 203
-0.733070 -0.909245 -0.681406 52 104 202
-0.731017 -0.924245 -0.679348 52 105 202
-0.722688 -0.930860 -0.671183 53 106 201
-0.708019 -0.929186 -0.656849 54 108 200
-0.705835 -0.943846 -0.654664 54 109 200
-0.703395 -0.958696 -0.652229 54 109 200
-0.698926 -0.970546 -0.647821 55 110 199
-0.678327 -0.959475 -0.627720 56 113 198
-0.679723 -0.979770 -0.629016 56 113 198
-0.669083 -0.982744 -0.618605 57 115 197
-0.658586 -0.985366 -0.608334 58 116 196
-0.649898 -0.990939 -0.599822 59 118 195
-0.639427 -0.993207 -0.589579 59 119 195
-0.638199 -1.010611 -0.588319 59 119 195
-0.622260 -1.003299 -0.572763 61 122 193
-0.622795 -1.023554 -0.573217 61 122 193
-0.614076 -1.028375 -0.564677 61 123 193
-0.591061 -1.008012 -0.542247 63 127 191
-0.593205 -1.031153 -0.544265 63 127 191
-0.584499 -1.035514 -0.535739 64 128 190
-0.570619 -1.030139 -0.522188 65 130 189
-0.561963 -1.034157 -0.513713 66 132 188
-0.558339 -1.047771 -0.510124 66 132 188
-0.547951 -1.048316 -0.499967 67 134 187
-0.544276 -1.061703 -0.496329 67 134 187
-0.532269 -1.058669 -0.484602 68 136 186
-0.521941 -1.058742 -0.474505 69 138 185
-0.514794 -1.065339 -0.467496 69 139 185
-0.504512 -1.065099 -0.457445 70 141 184
-0.500368 -1.078248 -0.453350 70 141 184
-0.491590 -1.081148 -0.444759 71 143 183
-0.490339 -1.100949 -0.443469 71 143 183
-0.477091 -1.093330 -0.430544 72 145 182
-0.465419 -1.088929 -0.419148 73 147 181
-0.452439 -1.080831 -0.406487 74 149 180
-0.450681 -1.100531 -0.404702 74 149 180
-0.444615 -1.109708 -0.398740 75 150 179
-0.433254 -1.104559 -0.387652 76 152 178
-0.425800 -1.109984 -0.380347 76 153 178
-0.420888 -1.122460 -0.375503 77 154 177
-0.409519 -1.116945 -0.364407 78 156 176
-0.401983 -1.122056 -0.357022 78 157 176
-0.394412 -1.127068 -0.349604 79 158 175
-0.385615 -1.128339 -0.341000 80 160 174
-0.380479 -1.140357 -0.335939 80 160 174
-0.371642 -1.141413 -0.327297 81 162 173
-0.371771 -1.171819 -0.327320 81 162 173
-0.359491 -1.161631 -0.315350 82 164 172
-0.351654 -1.166079 -0.307674 82 165 172
-0.340657 -1.159242 -0.296946 83 167 171
-0.336039 -1.174588 -0.292379 84 168 170
-0.327121 -1.174973 -0.283661 84 169 170
-0.321132 -1.186528 -0.277767 85 170 169
-0.312186 -1.186690 -0.269020 85 171 169
-0.303412 -1.186652 -0.260443 86 173 168
-0.298977 -1.205573 -0.256044 86 173 168
-0.286364 -1.190213 -0.243765 87 175 167
-0.276655 -1.186044 -0.234288 88 177 166
-0.270950 -1.200972 -0.228661 89 178 165
-0.263638 -1.208099 -0.221489 89 179 165
-0.253966 -1.203565 -0.212049 90 181 164
-0.249378 -1.226015 -0.207488 90 181 164
-0.239690 -1.221254 -0.198034 91 183 163
-0.234189 -1.239664 -0.192594 92 184 162
-0.225675 -1.242507 -0.184260 92 185 162
-0.217927 -1.249090 -0.176664 93 186 161
-0.208140 -1.243891 -0.167114 94 188 160
-0.200907 -1.254178 -0.160009 94 189 160
-0.193001 -1.260457 -0.152259 95 190 159
-0.186442 -1.278482 -0.145785 95 191 159
-0.176826 -1.272761 -0.136405 96 193 158
-0.168244 -1.274794 -0.128009 97 194 157
-0.159490 -1.276749 -0.119444 98 196 156
-0.151299 -1.282513 -0.111417 98 197 156
-0.141480 -1.272318 -0.101853 99 198 155
-0.133107 -1.277883 -0.093649 100 200 154
-0.125502 -1.291260 -0.086169 100 201 154
-0.117255 -1.300596 -0.078075 101 202 153
-0.107639 -1.289898 -0.068711 102 204 152
-0.100222 -1.310943 -0.061389 102 205 152
-0.090764 -1.304007 -0.052167 103 207 151
-0.081974 -1.304904 -0.043571 104 208 150
-0.072654 -1.293706 -0.034498 104 209 150
-0.064214 -1.306362 -0.026204 105 211 149
-0.055048 -1.294919 -0.017281 106 212 148
-0.046158 -1.295354 -0.008589 107 214 147
-0.037229 -1.283666 0.000100 107 215 147
-0.028421 -1.267861 0.008657 108 216 146
-0.019660 -1.247939 0.017154 109 218 145
-0.011451 -1.195905 0.025004 109 219 145
-0.003476 -1.187765 0.032773 110 220 144
0.004677 -1.187515 0.040742 111 222 143
0.012777 -1.191159 0.048673 111 223 143
0.020681 -1.186704 0.056384 112 224 142
0.028226 -1.174159 0.063718 112 225 142
0.036494 -1.181480 0.071825 113 227 141
0.203511 -2.056415 0.238050 127 254 127
0.206836 -1.958555 0.240970 127 254 127
0.264136 -2.192276 0.297774 131 246 123
0.278648 -2.184435 0.311934 133 243 121
0.282790 -2.105893 0.315718 133 243 121
0.363362 -2.224299 0.394884 139 230 115
0.362312 -2.043321 0.393247 139 230 115
0.372614 -2.018800 0.403234 140 229 114
0.233153 -1.122281 0.263876 129 251 125
0.240851 -1.118858 0.271390 129 250 125
0.238625 -1.073600 0.269062 129 250 125
0.240433 -1.047418 0.270741 129 250 125
0.244632 -1.032660 0.274796 130 249 124
0.254647 -1.040358 0.284612 130 248 124
0.255764 -1.014196 0.285615 130 248 124
0.252661 -0.947294 0.282357 130 248 124
0.253761 -0.925118 0.283357 130 248 124
0.268943 -0.950920 0.298286 131 246 123
0.275346 -0.947100 0.304532 132 245 122
0.271448 -0.910221 0.300597 132 245 122
0.269232 -0.858946 0.298259 131 246 123
0.280037 -0.869490 0.308856 132 244 122
0.273464 -0.829541 0.302297 132 245 122
0.265192 -0.786212 0.294063 131 246 123
0.282309 -0.814391 0.310892 132 244 122
0.289220 -0.813868 0.317646 133 242 121
0.289393 -0.795631 0.317754 133 242 121
0.294848 -0.791476 0.323072 133 242 121
0.293275 -0.769829 0.321462 133 242 121
0.295168 -0.693858 0.323056 133 242 121
0.292217 -0.672811 0.320100 133 242 121
0.309431 -0.695294 0.337004 135 239 119
0.299389 -0.607898 0.326893 134 241 120
0.295128 -0.587490 0.322658 133 242 121
0.293986 -0.573710 0.321495 133 242 121
0.302299 -0.544220 0.329523 134 241 120
0.314966 -0.513187 0.341801 135 239 119
0.302485 -0.474957 0.329471 134 241 120
0.330897 -0.497767 0.357323 136 236 118
0.319385 -0.463076 0.345952 135 238 119
0.312294 -0.444644 0.338958 135 239 119
0.331968 -0.462134 0.358250 136 236 118
0.337108 -0.460326 0.363268 137 235 117
0.330617 -0.434734 0.356836 136 236 118
0.320722 -0.414218 0.347094 135 238 119
0.332211 -0.420107 0.358345 136 236 118
0.330776 -0.410157 0.356909 136 236 118
0.320389 -0.390170 0.346687 135 238 119
0.333151 -0.374214 0.359109 136 236 118
0.342888 -0.369403 0.368612 137 234 117
0.343098 -0.362221 0.368793 137 234 117
0.347910 -0.359681 0.373488 138 233 116
0.343323 -0.347946 0.368965 137 234 117
0.329152 -0.327398 0.355042 136 236 118
0.376754 -0.357178 0.401678 140 229 114
0.371904 -0.338096 0.396872 139 230 115
0.381534 -0.339107 0.406290 140 228 114
0.391214 -0.339889 0.415755 141 227 113
0.388644 -0.330270 0.413210 141 227 113
0.398347 -0.330757 0.422697 142 225 112
0.408093 -0.331014 0.432226 142 224 112
0.412864 -0.327211 0.436877 143 223 111
0.420143 -0.325190 0.443986 143 222 111
0.414763 -0.313774 0.438688 143 223 111
0.437323 -0.322353 0.460771 145 219 109
0.405682 -0.285712 0.429716 142 224 112
0.405050 -0.278323 0.429073 142 224 112
0.380543 -0.205571 0.404871 140 228 114
0.387350 -0.202841 0.411515 141 227 113
0.388758 -0.197312 0.412873 141 227 113
0.379295 -0.186650 0.403586 140 228 114
0.369700 -0.176360 0.394172 139 230 115
0.366123 -0.151845 0.390592 139 231 115
0.361642 -0.144592 0.386188 139 231 115
0.438438 -0.160698 0.461316 145 219 109
0.412268 -0.102646 0.435537 143 223 111
0.389837 -0.069009 0.413495 141 227 113
0.410202 -0.066565 0.433396 142 224 112
0.400363 -0.042155 0.423695 142 225 112
0.412065 -0.037461 0.435119 143 223 111
0.043650 -1.193128 0.074071 113 227 141
0.051710 -1.192335 0.081297 114 228 140
0.210074 -2.162152 0.226609 126 252 128
0.223359 -2.147406 0.238474 127 254 127
0.288629 -2.185201 0.297144 131 246 123
0.305107 -2.193131 0.311950 133 243 121
0.309026 -2.024613 0.314897 133 243 121
0.374655 -2.234178 0.374468 138 233 116
0.393270 -2.248705 0.391213 139 230 115
0.399671 -2.197085 0.396781 139 230 115
0.397828 -2.106840 0.394823 139 230 115
0.404996 -2.066966 0.401117 140 229 114
0.258000 -1.137344 0.266138 129 251 125
0.263799 -1.126356 0.271302 129 250 125
0.265611 -1.100198 0.272839 129 250 125
0.264257 -1.062718 0.271498 129 250 125
0.269398 -1.051731 0.276072 130 249 124
0.276498 -1.048195 0.282428 130 248 124
0.284642 -1.048303 0.289733 131 247 123
0.287347 -1.029711 0.292097 131 247 123
0.282002 -0.985212 0.287152 131 247 123
0.281919 -0.959316 0.286991 131 247 123
0.288395 -0.955632 0.292787 131 246 123
0.298425 -0.962854 0.301807 132 245 122
0.302488 -0.951676 0.305414 132 244 122
0.292619 -0.878570 0.296315 131 246 123
0.299840 -0.878361 0.302792 132 245 122
0.300392 -0.860202 0.303226 132 245 122
0.312897 -0.874141 0.314488 133 243 121
0.303793 -0.831017 0.306178 132 244 122
0.301075 -0.805867 0.303654 132 245 122
0.302278 -0.791406 0.304685 132 245 122
0.310386 -0.794562 0.311968 133 243 121
0.325958 -0.814922 0.326004 134 241 120
0.317357 -0.761628 0.318109 133 242 121
0.294929 -0.681840 0.297724 131 246 123
0.329661 -0.728070 0.329032 134 241 120
0.326381 -0.707143 0.326020 134 241 120
0.327868 -0.696270 0.327316 134 241 120
0.344218 -0.715223 0.342045 135 238 119
0.352417 -0.717377 0.349406 136 237 118
0.345980 -0.573220 0.343146 135 238 119
0.330125 -0.528270 0.328774 134 241 120
0.337585 -0.530064 0.335471 134 240 120
0.333082 -0.486632 0.331286 134 240 120
0.332201 -0.476645 0.330462 134 240 120
0.335414 -0.472378 0.333330 134 240 120
0.338660 -0.467990 0.336226 135 239 119
0.329099 -0.446823 0.327579 134 241 120
0.349437 -0.464506 0.345880 135 238 119
0.348332 -0.454414 0.344855 135 238 119
0.342725 -0.439006 0.339774 135 239 119
0.363463 -0.455858 0.358432 136 236 118
0.347285 -0.420071 0.343800 135 238 119
0.350170 -0.415538 0.346373 135 238 119
0.348501 -0.405778 0.344842 135 238 119
0.360565 -0.411238 0.355681 136 236 118
0.363389 -0.406541 0.358198 136 236 118
0.363891 -0.399255 0.358625 136 236 118
0.347769 -0.375032 0.344083 135 238 119
0.364642 -0.384844 0.359250 136 236 118
0.352983 -0.365755 0.348728 136 237 118
0.365127 -0.370537 0.359636 136 236 118
0.365293 -0.363381 0.359761 136 236 118
0.453322 -0.356026 0.438691 143 223 111
0.461015 -0.353938 0.445584 143 222 111
0.473908 -0.355604 0.457154 144 220 110
0.436549 -0.313774 0.423504 142 225 112
0.444011 -0.311743 0.430190 142 224 112
0.459878 -0.285672 0.444334 143 222 111
0.431658 -0.242172 0.418876 141 226 113
0.427777 -0.233681 0.415366 141 227 113
0.418287 -0.222352 0.406817 140 228 114
0.414258 -0.214067 0.403175 140 229 114
0.434030 -0.211165 0.420899 141 226 113
0.418595 -0.197755 0.407010 140 228 114
0.430256 -0.160106 0.417342 141 226 113
0.417982 -0.081684 0.406069 140 228 114
0.416091 -0.021104 0.404168 140 228 114
0.434086 -0.016396 0.420292 141 226 113
-1.335625 0.954753 -0.656433 54 108 200
-1.355375 0.949726 -0.666456 53 107 201
-1.353923 0.929685 -0.665650 53 107 201
-1.343110 0.903551 -0.660065 54 108 200
-1.307320 0.861679 -0.641729 55 111 199
-1.298844 0.838400 -0.637341 56 112 198
-1.314886 0.831159 -0.645472 55 110 199
-1.290431 0.798408 -0.632929 56 112 198
-1.318764 0.798706 -0.647334 55 110 199
-1.265311 0.749894 -0.619995 57 114 197
-1.287144 0.746312 -0.631082 56 113 198
-1.261395 0.715124 -0.617887 57 115 197
-1.276715 0.707696 -0.625650 56 113 198
-1.298315 0.703766 -0.636618 56 112 198
-1.297538 0.687180 -0.636167 56 112 198
-1.257819 0.650449 -0.615851 57 115 197
-1.259802 0.636062 -0.616810 57 115 197
-1.261557 0.621933 -0.617655 57 115 197
-1.269825 0.610747 -0.621820 57 114 197
-1.222189 0.573047 -0.597476 59 118 195
-1.259755 0.575871 -0.616583 57 115 197
-1.231208 0.548503 -0.601978 58 117 196
-1.245572 0.540401 -0.609253 58 116 196
-1.229918 0.519285 -0.601224 58 117 196
-1.224055 0.502686 -0.598187 59 118 195
-1.254924 0.501107 -0.613875 57 115 197
-1.228582 0.476801 -0.600401 59 118 195
-1.215527 0.457960 -0.593701 59 119 195
-1.219198 0.445665 -0.595526 59 118 195
-1.205791 0.427266 -0.588647 59 119 195
-1.205744 0.414127 -0.588579 59 119 195
-1.205646 0.400790 -0.588484 59 119 195
-1.195159 0.384159 -0.583097 60 120 194
-1.177636 0.365625 -0.574126 61 122 193
-1.197713 0.359155 -0.584311 60 120 194
-1.159189 0.334979 -0.564644 61 123 193
-1.186072 0.330058 -0.578294 60 121 194
-1.199106 0.320877 -0.584890 60 120 194
-1.180783 0.303587 -0.575517 61 122 193
-1.190167 0.293385 -0.580253 60 121 194
-1.164741 0.274041 -0.567261 61 123 193
-1.184437 0.266005 -0.577248 60 121 194
-1.165593 0.249276 -0.567611 61 123 193
-1.188617 0.241819 -0.579291 60 121 194
-1.173015 0.226164 -0.571306 61 122 193
-1.174846 0.214087 -0.572196 61 122 193
-1.176577 0.201992 -0.573036 61 122 193
-1.167625 0.188159 -0.568438 61 123 193
-1.158545 0.174530 -0.563776 61 123 193
-1.166999 0.163833 -0.568037 61 123 193
-1.150611 0.149501 -0.559658 62 124 192
-1.151810 0.137661 -0.560228 62 124 192
-1.152912 0.125810 -0.560748 62 124 192
-1.146814 0.113240 -0.557605 62 124 192
-1.151269 0.101758 -0.559831 62 124 192
-1.134292 0.088514 -0.551156 62 125 192
-1.127859 0.076580 -0.547845 63 126 191
-1.092852 0.062913 -0.530002 64 129 190
-1.086215 0.051338 -0.526588 64 129 190
-1.086607 0.040171 -0.526750 64 129 190
-1.086906 0.029002 -0.526865 64 129 190
-1.058592 0.017359 -0.512431 66 132 188
-1.055138 0.006664 -0.510639 66 132 188
-1.026637 -0.004061 -0.496113 67 134 187
-0.987354 -0.014039 -0.476109 69 138 185
-0.459173 -0.025057 -0.207551 90 181 164
-0.508508 -0.038093 -0.232589 88 177 166
-0.490402 -0.041712 -0.223371 89 179 165
-0.490044 -0.046690 -0.223173 89 179 165
-0.486095 -0.051281 -0.221149 89 179 165
-0.499844 -0.057895 -0.228117 89 178 165
-0.488732 -0.061506 -0.222456 89 179 165
-0.491750 -0.066958 -0.223972 89 179 165
-0.487649 -0.071420 -0.221871 89 179 165
-0.487046 -0.076368 -0.221548 89 179 165
-0.486402 -0.081309 -0.221204 89 179 165
-0.489238 -0.086883 -0.222627 89 179 165
-0.488507 -0.091847 -0.222239 89 179 165
-0.491260 -0.097421 -0.223620 89 179 165
-0.490442 -0.102405 -0.223187 89 179 165
-0.475610 -0.104152 -0.215641 90 180 164
-0.485210 -0.111432 -0.220497 89 179 165
-0.494730 -0.118921 -0.225311 89 178 165
-0.507663 -0.127411 -0.231857 88 177 166
-0.489249 -0.127926 -0.222494 89 179 165
-0.491662 -0.133757 -0.223702 89 179 165
-0.493999 -0.139742 -0.224869 89 178 165
-0.496278 -0.145786 -0.226008 89 178 165
-0.477898 -0.145377 -0.216665 90 180 164
-0.482296 -0.157238 -0.218861 89 179 165
-0.498034 -0.168003 -0.226826 89 178 165
-0.486434 -0.169421 -0.220924 89 179 165
-0.495221 -0.177994 -0.225361 89 178 165
-0.476839 -0.176613 -0.216021 90 180 164
-0.488875 -0.186610 -0.222106 89 179 165
-0.510579 -0.224408 -0.233013 88 177 166
-0.498814 -0.225023 -0.227030 89 178 165
-0.487082 -0.225413 -0.221064 89 179 165
-0.502901 -0.244901 -0.229040 89 178 165
-0.507402 -0.253212 -0.231300 88 177 166
-0.505299 -0.258355 -0.230214 89 178 165
-0.499934 -0.261753 -0.227475 89 178 165
-0.497802 -0.266722 -0.226374 89 178 165
-0.498780 -0.273553 -0.226849 89 178 165
-0.493376 -0.276689 -0.224091 89 179 165
-0.500566 -0.287246 -0.227711 89 178 165
-0.491890 -0.288543 -0.223295 89 179 165
-0.505199 -0.303020 -0.230013 89 178 165
-0.480876 -0.294482 -0.217676 90 180 164
-0.490832 -0.307279 -0.222694 89 179 165
-0.494401 -0.316371 -0.224478 89 179 165
-0.507056 -0.331710 -0.230860 89 178 165
-0.489012 -0.326539 -0.221704 89 179 165
-0.489336 -0.333599 -0.221845 89 179 165
-0.492545 -0.342930 -0.223445 89 179 165
-0.498634 -0.354533 -0.226501 89 178 165
-0.507548 -0.368502 -0.230986 88 177 166
-0.498520 -0.369260 -0.226394 89 178 165
-0.495461 -0.374304 -0.224821 89 178 165
-0.492301 -0.379410 -0.223198 89 179 165
-0.494900 -0.389143 -0.224486 89 179 165
-0.506023 -0.406048 -0.230084 89 178 165
-0.491212 -0.401604 -0.222570 89 179 165
-0.496348 -0.413927 -0.225139 89 178 165
-0.506962 -0.431295 -0.230476 89 178 165
-0.492121 -0.426597 -0.222947 89 179 165
-0.494149 -0.436590 -0.223944 89 179 165
-0.495984 -0.446756 -0.224843 89 178 165
-0.497690 -0.456999 -0.225676 89 178 165
-1.324026 -1.354385 -0.642747 55 111 199
-1.302190 -1.357248 -0.631637 56 112 198
-1.298706 -1.378865 -0.629792 56 113 198
-1.243589 -1.344965 -0.601886 58 117 196
-1.029958 -1.154614 -0.493921 67 135 187
-0.729753 -0.845585 -0.342343 79 159 175
-0.756774 -0.894048 -0.355916 78 157 176
-0.775799 -0.934309 -0.365453 78 156 176
-0.780022 -0.957061 -0.367523 77 155 177
-0.764863 -0.956148 -0.359819 78 157 176
-0.754467 -0.961046 -0.354518 78 157 176
-0.748684 -0.971903 -0.351541 79 158 175
-0.738208 -0.976580 -0.346199 79 159 175
-0.730134 -0.984076 -0.342069 79 159 175
-0.717370 -0.985391 -0.335576 80 161 174
-0.706704 -0.989801 -0.330139 80 161 174
-0.698522 -0.996970 -0.325955 81 162 173
-0.685810 -0.997810 -0.319489 81 163 173
-0.669036 -0.991920 -0.310982 82 164 172
-0.664891 -1.005291 -0.308829 82 165 172
-0.656583 -1.012025 -0.304583 83 166 171
-0.654371 -1.028499 -0.303403 83 166 171
-0.637617 -1.022058 -0.294907 83 167 171
-0.629171 -1.028508 -0.290591 84 168 170
-0.618543 -1.031651 -0.285178 84 169 170
-0.610018 -1.037902 -0.280823 84 169 170
-0.603192 -1.047560 -0.277320 85 170 169
-0.585116 -1.036656 -0.268167 85 171 169
-0.583811 -1.056346 -0.267437 86 172 168
-0.580566 -1.072550 -0.265733 86 172 168
-0.566308 -1.068035 -0.258499 86 173 168
-0.553778 -1.066898 -0.252133 87 174 167
-0.550188 -1.082957 -0.250254 87 174 167
-0.534226 -1.074552 -0.242167 88 176 166
-0.521984 -1.072868 -0.235949 88 177 166
-0.516261 -1.085307 -0.232998 88 177 166
-0.510544 -1.097622 -0.230050 89 178 165
-0.493338 -1.084941 -0.221345 89 179 165
-0.485942 -1.093487 -0.217556 90 180 164
-0.483049 -1.112813 -0.216021 90 180 164
-0.463156 -1.092339 -0.205976 91 182 163
-0.458558 -1.107909 -0.203586 91 182 163
-0.452123 -1.119902 -0.200274 91 182 163
-0.445702 -1.131771 -0.196970 91 183 163
-0.434798 -1.132617 -0.191423 92 184 162
-0.424094 -1.133252 -0.185979 92 185 162
-0.413239 -1.133842 -0.180459 93 186 161
-0.407748 -1.149151 -0.177616 93 186 161
-0.393223 -1.138231 -0.170269 93 187 161
-0.389787 -1.160998 -0.168445 94 188 160
-0.379006 -1.161099 -0.162963 94 189 160
-0.366909 -1.157363 -0.156826 95 190 159
-0.355088 -1.153407 -0.150830 95 190 159
-0.348692 -1.168402 -0.147528 95 191 159
-0.334766 -1.156576 -0.140488 96 192 158
-0.328336 -1.171360 -0.137169 96 193 158
-0.323333 -1.193908 -0.134549 96 193 158
-0.311345 -1.189447 -0.128470 97 194 157
-0.303225 -1.200278 -0.124305 97 195 157
-0.290219 -1.191750 -0.117722 98 196 156
-0.282826 -1.206275 -0.113914 98 196 156
-0.271839 -1.205196 -0.108333 98 197 156
-0.263948 -1.219628 -0.104272 99 198 155
-0.254470 -1.226142 -0.099432 99 199 155
-0.243226 -1.224782 -0.093720 100 200 154
-0.230085 -1.211488 -0.087084 100 201 154
-0.222612 -1.229451 -0.083224 100 201 154
-0.213373 -1.239532 -0.078493 101 202 153
-0.202952 -1.241605 -0.073189 101 203 153
-0.192515 -1.243567 -0.067876 102 204 152
-0.182412 -1.249407 -0.062720 102 205 152
-0.171909 -1.251152 -0.057375 103 206 151
-0.161392 -1.252785 -0.052022 103 207 151
-0.152442 -1.270213 -0.047414 103 207 151
-0.141766 -1.271640 -0.041981 104 208 150
-0.129374 -1.257064 -0.035730 104 209 150
-0.120524 -1.278158 -0.031160 105 210 149
-0.109782 -1.279247 -0.025695 105 211 149
-0.098556 -1.276251 -0.019998 106 212 148
-0.088315 -1.285090 -0.014762 106 213 148
-0.077307 -1.281844 -0.009177 107 214 147
-0.066510 -1.286482 -0.003672 107 214 147
-0.056262 -1.302988 0.001594 107 215 147
-0.044578 -1.283410 0.007468 108 216 146
-0.033940 -1.291694 0.012904 108 217 146
-0.022851 -1.267868 0.018461 109 218 145
-0.012036 -1.295925 0.024054 109 219 145
-0.001148 -1.295866 0.029589 110 220 144
0.009552 -1.283694 0.034988 110 221 144
0.020537 -1.283401 0.040571 111 222 143
0.030799 -1.267009 0.045733 111 222 143
0.039643 -1.222549 0.050079 111 223 143
0.048125 -1.182001 0.054255 112 224 142
0.057823 -1.177321 0.059169 112 225 142
0.067630 -1.172526 0.064139 112 225 142
0.078077 -1.179603 0.069474 113 226 141
0.088835 -1.186542 0.074966 113 227 141
0.101923 -1.217226 0.081723 114 228 140
0.113348 -1.227888 0.087568 114 229 140
0.119941 -1.190756 0.090794 115 230 139
0.129658 -1.185315 0.095716 115 231 139
0.144630 -1.223358 0.103456 116 232 138
0.500699 -2.280080 0.288041 131 247 123
0.498536 -2.181601 0.286609 131 247 123
0.622791 -2.345684 0.350332 136 237 118
0.646040 -2.350169 0.362167 137 235 117
0.669425 -2.354368 0.374070 138 233 116
0.698227 -2.377376 0.388790 139 231 115
0.726687 -2.396056 0.403321 140 229 114
0.743582 -2.376673 0.411845 141 227 113
0.863997 -2.388989 0.473104 146 217 108
0.507055 -1.211201 0.287667 131 247 123
0.523687 -1.219908 0.296152 131 246 123
0.549736 -1.250012 0.309496 132 244 122
0.565308 -1.254567 0.317429 133 242 121
0.537813 -1.139761 0.303063 132 245 122
0.538938 -1.116290 0.303556 132 245 122
0.551978 -1.117268 0.310188 132 244 122
0.581120 -1.149223 0.325112 134 241 120
0.565578 -1.094591 0.317026 133 243 121
0.562207 -1.064251 0.315210 133 243 121
0.578778 -1.071629 0.323659 134 241 120
0.584131 -1.058456 0.326336 134 241 120
0.595099 -1.055350 0.331902 134 240 120
0.584540 -1.015363 0.326399 134 241 120
0.585267 -0.995619 0.326702 134 241 120
0.591908 -0.985728 0.330045 134 240 120
0.608495 -0.992282 0.338499 135 239 119
0.625250 -0.998569 0.347038 135 238 119
0.612791 -0.959359 0.340573 135 239 119
0.595470 -0.914099 0.331614 134 240 120
0.609734 -0.917072 0.338875 135 239 119
0.646057 -0.951304 0.357457 136 236 118
0.636513 -0.919081 0.352497 136 237 118
0.618223 -0.858620 0.342994 135 238 119
0.630126 -0.857927 0.349043 136 237 118
0.637448 -0.850977 0.352742 136 237 118
0.656542 -0.858890 0.362476 137 235 117
0.673335 -0.863610 0.371029 137 234 117
0.695053 -0.873971 0.382105 138 232 116
0.688009 -0.848700 0.378439 138 233 116
0.692809 -0.838217 0.380844 138 232 116
0.690093 -0.819056 0.379399 138 232 116
0.707174 -0.822752 0.388094 139 231 115
0.691548 -0.789505 0.380038 138 232 116
0.690661 -0.773490 0.379534 138 232 116
0.694695 -0.763118 0.381549 138 232 116
0.698615 -0.752731 0.383507 138 232 116
0.694590 -0.734172 0.381398 138 232 116
0.687790 -0.712943 0.377870 138 233 116
0.693869 -0.705381 0.380935 138 232 116
0.681015 -0.679457 0.374312 138 233 116
0.689510 -0.674575 0.378615 138 233 116
0.681740 -0.653983 0.374595 138 233 116
0.679074 -0.638854 0.373189 138 233 116
0.698363 -0.643969 0.383012 138 232 116
0.678740 -0.613925 0.372935 138 233 116
0.683973 -0.606467 0.375570 138 233 116
0.666483 -0.579551 0.366588 137 234 117
0.674274 -0.574621 0.370532 137 234 117
0.679170 -0.567213 0.372996 138 233 116
0.672429 -0.550422 0.369512 137 234 117
0.682945 -0.547638 0.374849 138 233 116
0.681744 -0.535599 0.374198 138 233 116
0.671545 -0.516922 0.368950 137 234 117
0.684861 -0.516166 0.375717 138 233 116
0.692247 -0.510821 0.379454 138 232 116
0.696596 -0.503224 0.381639 138 232 116
0.709961 -0.501907 0.388429 139 231 115
0.741637 -0.512807 0.404570 140 228 114
0.779689 -0.527156 0.423963 142 225 112
0.844334 -0.545616 0.456890 144 220 110
0.873887 -0.551928 0.471936 146 217 108
0.875536 -0.540288 0.472735 146 217 108
0.886426 -0.534466 0.478252 146 216 108
0.881483 -0.519251 0.475687 146 217 108
0.885899 -0.509615 0.477900 146 216 108
0.903008 -0.507024 0.486589 147 215 107
0.897691 -0.491942 0.483835 147 215 107
0.898649 -0.480429 0.484283 147 215 107
0.909209 -0.473949 0.489630 147 215 107
0.890470 -0.452578 0.480031 146 216 108
0.900847 -0.446048 0.485285 147 215 107
0.904636 -0.436208 0.487178 147 215 107
0.908340 -0.426327 0.489028 147 215 107
0.911960 -0.416408 0.490835 147 214 107
0.898901 -0.399165 0.484137 147 215 107
0.902289 -0.389348 0.485827 147 215 107
0.898906 -0.376726 0.484064 147 215 107
0.895392 -0.364213 0.482236 146 216 108
0.901847 -0.355749 0.485489 147 215 107
0.898216 -0.342995 0.483599 147 215 107
0.907952 -0.335487 0.488524 147 215 107
0.887099 -0.316814 0.477859 146 216 108
0.906880 -0.312769 0.487903 147 215 107
0.889102 -0.295762 0.478807 146 216 108
0.922565 -0.295484 0.495818 147 214 107
0.897594 -0.276844 0.483060 146 216 108
0.896570 -0.265683 0.482502 146 216 108
0.919640 -0.261375 0.494216 147 214 107
0.911490 -0.248359 0.490029 147 214 107
0.896292 -0.233579 0.482252 146 216 108
0.908743 -0.226194 0.488557 147 215 107
0.903739 -0.214285 0.485973 147 215 107
0.909105 -0.204848 0.488670 147 215 107
0.907357 -0.194013 0.487744 147 215 107
0.891500 -0.180250 0.479636 146 216 108
0.886037 -0.168848 0.476821 146 217 108
0.898043 -0.160880 0.482897 146 216 108
0.885333 -0.148393 0.476393 146 217 108
0.914849 -0.142929 0.491381 147 214 107
0.887795 -0.128543 0.477579 146 216 108
0.903068 -0.120378 0.485315 147 215 107
0.889909 -0.108643 0.478586 146 216 108
0.905035 -0.100142 0.486247 147 215 107
0.898775 -0.089399 0.483028 146 216 108
0.906646 -0.079866 0.486998 147 215 107
0.893095 -0.068546 0.480071 146 216 108
0.922138 -0.060484 0.494809 147 214 107
0.915521 -0.049690 0.491408 147 214 107
0.933745 -0.040112 0.500640 148 213 106
0.912679 -0.029082 0.489894 147 214 107
0.912906 -0.018778 0.489974 147 214 107
0.905909 -0.008586 0.486383 147 215 107
0.909520 0.001647 0.488184 147 215 107
0.071881 -1.293485 0.043288 111 222 143
0.083358 -1.292712 0.045745 111 222 143
0.095442 -1.299807 0.048358 111 223 143
0.107540 -1.302778 0.050960 111 223 143
0.121371 -1.325559 0.054001 112 224 142
0.132302 -1.316370 0.056312 112 224 142
0.146677 -1.338874 0.059469 112 225 142
0.156840 -1.321500 0.061588 112 225 142
0.169604 -1.327864 0.064344 112 225 142
0.180827 -1.322223 0.066730 113 226 141
0.193145 -1.324391 0.069377 113 226 141
0.206371 -1.330348 0.072231 113 227 141
0.214862 -1.308616 0.073977 113 227 141
0.222984 -1.286837 0.075644 113 227 141
0.232202 -1.272875 0.077572 114 228 140
0.240639 -1.254883 0.079320 114 228 140
0.254173 -1.264288 0.082251 114 228 140
0.265384 -1.261824 0.084645 114 229 140
0.273959 -1.247559 0.086435 114 229 140
0.280702 -1.225408 0.087805 114 229 140
0.292508 -1.226582 0.090339 115 230 139
0.310210 -1.250874 0.094214 115 230 139
0.322310 -1.251754 0.096810 115 231 139
0.333408 -1.248658 0.099177 115 231 139
0.346848 -1.253085 0.102072 116 232 138
0.369084 -1.288100 0.106955 116 232 138
0.382796 -1.292215 0.109907 116 233 138
0.404877 -1.322869 0.114742 117 234 137
0.424119 -1.341735 0.118929 117 234 137
0.448500 -1.375587 0.124268 117 235 137
0.455562 -1.356202 0.125716 117 235 137
0.464950 -1.344333 0.127687 118 236 136
0.487892 -1.369848 0.132689 118 237 136
0.494499 -1.350248 0.134039 118 237 136
0.496551 -1.319456 0.134375 118 237 136
0.527085 -1.363024 0.141065 119 238 135
0.534946 -1.346824 0.142695 119 238 135
0.560521 -1.374928 0.148270 119 239 135
1.265186 -2.609754 0.303432 132 245 122
1.311362 -2.644170 0.313443 133 243 121
1.349225 -2.660205 0.321610 133 242 121
1.391153 -2.682811 0.330671 134 240 120
1.437330 -2.711882 0.340664 135 239 119
1.480338 -2.733321 0.349952 136 237 118
1.535425 -2.775048 0.361897 137 235 117
1.563921 -2.767539 0.367978 137 234 117
1.704406 -2.778792 0.398120 140 229 114
1.748013 -2.793083 0.407512 140 228 114
1.770598 -2.773336 0.412285 141 227 113
1.727839 -2.653636 0.402719 140 229 114
1.744726 -2.627512 0.406249 140 228 114
2.012477 -2.914413 0.464591 145 219 109
2.077165 -2.950675 0.478575 146 216 108
2.091695 -2.915104 0.481569 146 216 108
2.112801 -2.889108 0.486004 147 215 107
2.169221 -2.910624 0.498166 148 213 106
2.235802 -2.943950 0.512546 149 211 105
2.300213 -2.973553 0.526448 150 209 104
2.368284 -3.004900 0.541140 151 206 103
2.466909 -3.072277 0.562501 153 203 101
2.433812 -2.975639 0.555083 152 204 102
2.016766 -2.292199 0.463412 145 219 109
1.955046 -2.182037 0.449815 144 221 110
1.950304 -2.137461 0.448648 144 221 110
1.958418 -2.107632 0.450286 144 221 110
2.026057 -2.140971 0.464892 145 219 109
2.031247 -2.107796 0.465893 145 218 109
1.947625 -1.984146 0.447557 144 221 110
1.884337 -1.884607 0.433660 142 224 112
2.044151 -1.968287 0.468187 145 218 109
2.036010 -1.924412 0.466295 145 218 109
2.039172 -1.891229 0.466861 145 218 109
1.958413 -1.749393 0.449077 144 221 110
2.466291 -2.120207 0.559157 153 203 101
2.491775 -2.101363 0.564554 153 202 101
2.483667 -2.054586 0.562659 153 203 101
2.474578 -2.008598 0.560556 153 203 101
2.471383 -1.967425 0.559733 153 203 101
2.470761 -1.928917 0.559470 153 203 101
2.484987 -1.903009 0.562431 153 203 101
2.502430 -1.878914 0.566087 153 202 101
2.554581 -1.880314 0.577267 154 200 100
2.670585 -1.927397 0.602284 156 196 98
