ply
format ascii 1.0
element vertex 1210
property float x
property float y
property float z
property uchar red
property uchar green
property uchar blue
end_header
1.043998 2.028400 0.222377 177 154 77
2.121491 4.746215 0.424155 183 143 71
2.091941 4.799290 0.417889 183 143 71
2.041281 4.804501 0.407634 182 144 72
1.998356 4.827591 0.398834 182 144 72
1.949206 4.835483 0.388861 182 145 72
1.895706 4.831719 0.378074 181 146 73
1.886665 4.942912 0.375589 181 146 73
1.822847 4.912188 0.362867 181 146 73
1.773337 4.918224 0.352816 181 147 73
1.735781 4.957648 0.344980 181 147 73
1.698941 5.000565 0.337263 180 148 74
1.648935 5.005291 0.327107 180 148 74
1.617258 5.066556 0.320316 180 149 74
1.563310 5.058978 0.309428 180 149 74
1.517677 5.077599 0.300060 179 150 75
1.453784 5.213588 0.286257 179 151 75
1.418070 5.273613 0.278634 179 151 75
1.361275 5.256059 0.267208 178 152 76
1.308808 5.253392 0.256563 178 152 76
1.444921 6.868347 0.274065 179 151 75
1.390126 6.925011 0.262547 178 152 76
1.330646 6.961593 0.250197 178 153 76
1.269897 6.993710 0.237611 178 153 76
1.100605 6.772139 0.204508 177 155 77
0.777195 6.733919 0.138700 175 159 79
0.379880 5.530633 0.065210 173 163 81
0.329767 5.549989 0.054812 173 163 81
0.284671 5.692758 0.044631 172 164 82
0.239081 5.863073 0.034164 172 164 82
0.184943 5.865085 0.023039 172 165 82
0.129497 5.810590 0.012012 171 166 83
0.075130 5.759556 0.001178 171 166 83
0.021845 5.735996 -0.009619 171 167 83
-0.031146 5.743925 -0.020566 171 167 83
-0.084225 5.747343 -0.031506 170 168 84
-0.137371 5.750249 -0.042462 170 168 84
-0.189156 5.708669 -0.052851 170 169 84
-0.242345 5.718557 -0.063871 169 170 85
-0.297357 5.759881 -0.075478 169 170 85
-0.350516 5.756737 -0.086416 169 171 85
-0.405856 5.784998 -0.098014 168 172 86
-0.461749 5.812702 -0.109727 168 172 86
-0.525545 5.923492 -0.123619 168 173 86
-0.579041 5.906203 -0.134554 167 174 87
-0.637350 5.936122 -0.146795 167 174 87
-0.702249 6.017071 -0.160735 167 175 87
-0.762194 6.053788 -0.173370 166 176 88
-0.824972 6.097660 -0.186641 166 176 88
-0.861857 5.954893 -0.193352 166 177 88
-0.905272 5.871237 -0.201802 166 177 88
-0.949790 5.803063 -0.210585 165 178 89
-0.991773 5.726683 -0.218795 165 178 89
-1.028140 5.626428 -0.225692 165 178 89
-1.045461 5.435727 -0.228067 165 179 89
-1.092439 5.409732 -0.237649 165 179 89
-1.251439 5.656883 -0.272230 164 181 90
-1.299120 5.625098 -0.281935 163 182 91
-1.353779 5.623972 -0.293288 163 182 91
-1.402728 5.599043 -0.303310 163 183 91
-1.457356 5.596865 -0.314660 163 183 91
-1.704384 6.083005 -0.369101 161 186 93
-1.756016 6.050962 -0.379656 161 187 93
-1.798046 5.987879 -0.388025 161 187 93
-2.892875 9.030765 -0.634906 154 201 100
-3.004217 9.077156 -0.658409 153 202 101
-3.115899 9.135177 -0.682070 153 203 101
-3.229138 9.187514 -0.706026 152 205 102
-3.346104 9.250324 -0.730833 151 206 103
-3.468647 9.322915 -0.756872 151 207 103
-3.520230 9.204008 -0.766950 150 208 104
-3.593367 9.139958 -0.781863 150 209 104
-3.662593 9.072280 -0.795948 149 210 105
-3.717187 8.970936 -0.806781 149 210 105
-3.759358 8.843669 -0.814871 149 211 105
-3.808992 8.733968 -0.824629 149 211 105
-3.860335 8.635707 -0.834822 148 212 106
-3.903599 8.522742 -0.843244 148 212 106
-3.945149 8.409707 -0.851315 148 213 106
-4.000490 8.328935 -0.862466 148 213 106
-4.045585 8.225679 -0.871345 147 214 107
-4.091319 8.130144 -0.880412 147 214 107
-4.128392 8.020299 -0.887588 147 215 107
-4.176791 7.935110 -0.897285 147 215 107
-4.225344 7.848944 -0.907013 146 216 108
-4.263690 7.749372 -0.914532 146 216 108
-4.302543 7.653222 -0.922183 146 216 108
-4.340022 7.557008 -0.929551 146 217 108
-4.379416 7.463394 -0.937339 146 217 108
-4.426417 7.387542 -0.946831 145 218 109
-4.462059 7.294488 -0.953848 145 218 109
-4.506911 7.218255 -0.962897 145 219 109
-4.545586 7.130938 -0.970591 145 219 109
-4.581848 7.044340 -0.977790 145 219 109
-4.621321 6.964292 -0.985704 144 220 110
-4.653066 6.874238 -0.991945 144 220 110
-4.700518 6.806222 -1.001610 144 221 110
-4.729991 6.716031 -1.007383 144 221 110
-4.785993 6.664561 -1.018948 143 222 111
-4.796964 6.551767 -1.020717 143 222 111
-4.866701 6.517972 -1.035274 143 223 111
-4.891923 6.427473 -1.040170 143 223 111
-4.923212 6.346461 -1.046397 143 223 111
-4.970654 6.287188 -1.056145 142 224 112
-4.991167 6.192711 -1.060039 142 224 112
-5.025466 6.116781 -1.066938 142 224 112
-5.072557 6.055031 -1.076607 142 225 112
-5.107643 5.981783 -1.083695 142 225 112
-5.145439 5.910470 -1.091365 141 226 113
-5.178742 5.836932 -1.098085 141 226 113
-4.418540 4.703018 -0.932233 146 217 108
-4.517238 4.716622 -0.953188 145 218 109
-4.779071 4.805495 -1.009027 144 221 110
-4.753683 4.688944 -1.003163 144 221 110
-4.827970 4.673202 -1.018843 143 222 111
-4.777139 4.535779 -1.007509 144 221 110
-4.917029 4.581185 -1.037352 143 223 111
-4.996972 4.568288 -1.054255 142 224 112
-4.925048 4.416172 -1.038401 143 223 111
-4.998179 4.397243 -1.053844 142 224 112
-5.063182 4.368649 -1.067524 142 224 112
-5.085201 4.304379 -1.071955 142 225 112
-5.139870 4.267819 -1.083424 142 225 112
-5.042794 4.026745 -1.061926 142 224 112
-0.564408 0.430167 -0.097900 168 172 86
-0.568353 0.424753 -0.098719 168 172 86
-0.572318 0.419199 -0.099542 168 172 86
-0.579354 0.416019 -0.101026 168 172 86
-0.567167 0.398964 -0.098378 168 172 86
-0.564354 0.389028 -0.097746 168 172 86
-0.554961 0.374652 -0.095702 169 171 85
-0.545289 0.360593 -0.093600 169 171 85
-0.551889 0.357519 -0.094993 169 171 85
-0.585069 0.371214 -0.102093 168 172 86
-1.683337 0.920734 -0.337431 162 185 92
-1.767969 0.945367 -0.355516 161 186 93
-1.849717 0.966624 -0.372979 161 187 93
-1.942501 0.991756 -0.392802 160 188 94
-1.965624 0.980059 -0.397694 160 188 94
-1.942810 0.945615 -0.392742 160 188 94
-1.996112 0.766888 -0.403640 160 188 94
-1.944327 0.725675 -0.392508 160 188 94
-1.910393 0.692224 -0.385198 161 187 93
-1.957377 0.688161 -0.395201 160 188 94
-1.919122 0.654103 -0.386970 161 187 93
-1.928905 0.636511 -0.389013 161 187 93
-1.945894 0.621523 -0.392600 160 188 94
-1.992727 0.615536 -0.402569 160 188 94
-1.957023 0.583998 -0.394889 160 188 94
-2.052676 0.591235 -0.415294 160 189 94
-2.050494 0.569371 -0.414782 160 189 94
-2.082147 0.556726 -0.421502 160 189 94
-1.973401 0.507362 -0.398217 160 188 94
-1.875345 0.462968 -0.377221 161 187 93
-1.925262 0.455768 -0.387848 161 187 93
-1.956116 0.443310 -0.394400 160 188 94
-2.055786 0.445244 -0.415652 160 189 94
-2.132858 0.418871 -0.432029 159 190 95
-2.132784 0.397625 -0.431972 159 190 95
-2.128653 0.375736 -0.431048 159 190 95
-2.159055 0.359762 -0.437499 159 190 95
-2.162283 0.338985 -0.438147 159 190 95
-2.180808 0.320458 -0.442061 159 190 95
-2.210812 0.303201 -0.448426 159 191 95
-2.244571 0.285890 -0.455591 159 191 95
-2.274364 0.267092 -0.461906 159 191 95
-2.338978 0.251922 -0.475654 158 192 96
-2.383998 0.234044 -0.485222 158 193 96
-2.413339 0.213522 -0.491440 158 193 96
-2.376173 0.187648 -0.483470 158 193 96
-2.354387 0.163162 -0.478780 158 192 96
-2.250328 0.134618 -0.456543 159 191 95
-1.111655 0.023888 -0.213555 165 178 89
-1.104003 0.013324 -0.211905 165 178 89
-1.096257 0.002713 -0.210234 165 178 89
-1.084502 -0.007527 -0.207710 165 178 89
-1.072654 -0.017735 -0.205165 166 177 88
-1.072451 -0.027834 -0.205105 166 177 88
-0.491803 -0.045328 -0.081266 169 171 85
-0.499150 -0.050822 -0.082822 169 171 85
-0.475329 -0.052950 -0.077739 169 170 85
-0.505322 -0.066029 -0.084111 169 171 85
-0.516330 -0.072408 -0.086446 169 171 85
-0.511772 -0.076747 -0.085466 169 171 85
-0.507193 -0.080915 -0.084482 169 171 85
-0.529578 -0.089717 -0.089239 169 171 85
-0.509483 -0.091190 -0.084951 169 171 85
-0.508621 -0.096049 -0.084758 169 171 85
-0.500037 -0.099357 -0.082921 169 171 85
-0.495287 -0.103228 -0.081900 169 171 85
-0.509612 -0.111328 -0.084939 169 171 85
-0.516218 -0.117858 -0.086335 169 171 85
-0.511302 -0.121863 -0.085279 169 171 85
-0.513979 -0.127601 -0.085838 169 171 85
-0.497619 -0.128542 -0.082347 169 171 85
-0.522861 -0.140562 -0.087705 169 171 85
-0.510229 -0.142357 -0.085007 169 171 85
-0.508896 -0.147221 -0.084712 169 171 85
-0.515021 -0.154343 -0.086003 169 171 85
-0.494848 -0.153479 -0.081701 169 171 85
-0.508331 -0.163029 -0.084556 169 171 85
-0.495653 -0.164139 -0.081849 169 171 85
-0.520067 -0.177824 -0.087027 169 171 85
-0.499904 -0.176288 -0.082728 169 171 85
-0.516670 -0.187812 -0.086278 169 171 85
-0.503909 -0.188572 -0.083554 169 171 85
-0.513121 -0.197641 -0.085498 169 171 85
-0.522174 -0.206996 -0.087406 169 171 85
-0.505727 -0.205996 -0.083899 169 171 85
-0.511039 -0.213871 -0.085013 169 171 85
-0.501845 -0.215612 -0.083046 169 171 85
-0.499800 -0.220479 -0.082597 169 171 85
-0.522750 -0.236670 -0.087454 169 171 85
-0.502765 -0.233312 -0.083197 169 171 85
-0.497054 -0.236397 -0.081970 169 171 85
-0.505389 -0.246426 -0.083722 169 171 85
-0.496080 -0.247697 -0.081731 169 171 85
-0.518224 -0.265047 -0.086412 169 171 85
-0.519237 -0.271818 -0.086609 169 171 85
-0.523580 -0.280597 -0.087511 169 171 85
-0.514092 -0.281772 -0.085481 169 171 85
-0.514898 -0.288604 -0.085634 169 171 85
-0.512218 -0.293505 -0.085047 169 171 85
-0.526374 -0.308490 -0.088027 169 171 85
-0.523511 -0.313501 -0.087400 169 171 85
-0.507205 -0.310208 -0.083925 169 171 85
-0.510986 -0.319236 -0.084705 169 171 85
-0.507969 -0.324187 -0.084044 169 171 85
-0.514832 -0.335516 -0.085476 169 171 85
-0.511720 -0.340414 -0.084795 169 171 85
-0.511812 -0.347511 -0.084791 169 171 85
-0.502073 -0.347948 -0.082706 169 171 85
-0.514885 -0.364179 -0.085393 169 171 85
-0.521069 -0.376042 -0.086675 169 171 85
-0.514418 -0.378646 -0.085244 169 171 85
-0.517129 -0.388395 -0.085790 169 171 85
-0.497927 -0.381243 -0.081705 169 171 85
-0.506720 -0.395840 -0.083535 169 171 85
-0.509203 -0.405605 -0.084032 169 171 85
-0.505376 -0.410534 -0.083194 169 171 85
-0.507631 -0.420404 -0.083640 169 171 85
-1.415339 -1.274193 -0.274870 164 181 90
-1.418084 -1.301109 -0.275354 164 181 90
-1.403158 -1.311957 -0.272111 164 181 90
-1.385076 -1.320146 -0.268200 164 181 90
-1.370027 -1.330620 -0.264930 164 181 90
-1.282495 -1.369267 -0.245982 164 180 90
-1.269596 -1.381736 -0.243157 165 179 89
-1.246231 -1.382065 -0.238137 165 179 89
-0.778175 -0.929459 -0.139565 167 174 87
-0.797162 -0.970658 -0.143459 167 174 87
-0.790502 -0.981480 -0.141976 167 174 87
-0.776531 -0.982760 -0.138964 167 174 87
-0.765028 -0.987002 -0.136468 167 174 87
-0.753347 -0.991244 -0.133933 168 173 86
-0.748911 -1.004786 -0.132913 168 173 86
-0.732459 -1.002396 -0.129380 168 173 86
-0.718593 -1.002885 -0.126391 168 173 86
-0.711601 -1.012969 -0.124834 168 173 86
-0.697586 -1.013292 -0.121811 168 173 86
-0.686015 -1.016614 -0.119299 168 173 86
-0.676451 -1.023245 -0.117202 168 173 86
-0.662701 -1.022977 -0.114237 168 172 86
-0.655373 -1.032627 -0.112606 168 172 86
-0.645660 -1.038957 -0.110476 168 172 86
-0.635888 -1.045190 -0.108332 168 172 86
-0.620344 -1.040833 -0.104998 168 172 86
-0.614720 -1.053598 -0.103715 168 172 86
-0.607135 -1.062775 -0.102027 168 172 86
-0.597324 -1.068523 -0.099875 168 172 86
-0.583848 -1.067074 -0.096969 169 171 85
-0.568401 -1.062046 -0.093654 169 171 85
-0.556946 -1.063788 -0.091166 169 171 85
-0.547129 -1.069052 -0.089011 169 171 85
-0.544523 -1.088403 -0.088340 169 171 85
-0.531006 -1.086374 -0.085423 169 171 85
-0.521168 -1.091295 -0.083264 169 171 85
-0.504416 -1.081739 -0.079686 169 171 85
-0.499535 -1.097310 -0.078539 169 170 85
-0.487807 -1.098369 -0.075989 169 170 85
-0.477862 -1.102881 -0.073805 169 170 85
-0.469226 -1.111059 -0.071883 169 170 85
-0.461984 -1.122863 -0.070241 169 170 85
-0.448879 -1.119712 -0.067413 169 170 85
-0.439988 -1.127653 -0.065434 169 170 85
-0.426977 -1.124239 -0.062626 169 170 85
-0.420712 -1.139493 -0.061173 169 170 85
-0.413066 -1.150890 -0.059441 170 169 84
-0.402454 -1.154762 -0.057108 170 169 84
-0.393269 -1.162248 -0.055064 170 169 84
-0.380093 -1.158331 -0.052218 170 169 84
-0.367220 -1.154200 -0.049438 170 169 84
-0.360061 -1.169092 -0.047787 170 169 84
-0.348358 -1.168559 -0.045238 170 169 84
-0.337586 -1.171805 -0.042868 170 169 84
-0.325929 -1.171037 -0.040330 170 168 84
-0.318197 -1.185655 -0.038551 170 168 84
-0.307472 -1.188556 -0.036191 170 168 84
-0.298418 -1.199169 -0.034146 170 168 84
-0.283913 -1.186321 -0.031057 170 168 84
-0.276496 -1.204539 -0.029320 170 168 84
-0.263072 -1.195324 -0.026442 170 168 84
-0.253673 -1.205575 -0.024320 170 168 84
-0.241794 -1.203984 -0.021730 171 167 83
-0.230907 -1.206160 -0.019332 171 167 83
-0.223784 -1.231927 -0.017607 171 167 83
-0.209784 -1.218196 -0.014626 171 167 83
-0.201068 -1.235899 -0.012601 171 167 83
-0.189684 -1.237720 -0.010092 171 167 83
-0.176622 -1.227551 -0.007292 171 167 83
-0.165834 -1.233102 -0.004887 171 166 83
-0.156881 -1.254434 -0.002783 171 166 83
-0.144884 -1.251854 -0.000164 171 166 83
-0.134171 -1.261089 0.002251 171 166 83
-0.123301 -1.270228 0.004701 171 166 83
-0.110936 -1.263326 0.007376 171 166 83
-0.099304 -1.264276 0.009942 171 166 83
-0.088446 -1.277087 0.012416 171 166 83
-0.076689 -1.277819 0.015011 172 165 82
-0.065300 -1.286429 0.017577 172 165 82
-0.053608 -1.290934 0.020184 172 165 82
-0.041270 -1.275336 0.022803 172 165 82
-0.029542 -1.287615 0.025471 172 165 82
-0.017651 -1.283778 0.028070 172 165 82
-0.005846 -1.299826 0.030782 172 165 82
0.006082 -1.295760 0.033390 172 164 82
0.017652 -1.275582 0.035815 172 164 82
0.030468 -1.315273 0.038909 172 164 82
0.042137 -1.302864 0.041408 172 164 82
0.053582 -1.290348 0.043859 172 164 82
0.065236 -1.285715 0.046408 172 164 82
0.078339 -1.304918 0.049436 173 163 81
0.090927 -1.312016 0.052271 173 163 81
0.102669 -1.307029 0.054841 173 163 81
0.115787 -1.317860 0.057820 173 163 81
0.127107 -1.308662 0.060271 173 163 81
0.138706 -1.303337 0.062810 173 163 81
0.149744 -1.293936 0.065200 173 163 81
0.161645 -1.292368 0.067833 173 162 81
0.171340 -1.274846 0.069874 173 162 81
0.181312 -1.261208 0.072002 173 162 81
0.190429 -1.243544 0.073916 173 162 81
0.199237 -1.225818 0.075761 173 162 81
0.212104 -1.231608 0.078662 173 162 81
0.224887 -1.237298 0.081544 173 162 81
0.230902 -1.207559 0.082694 173 162 81
0.245211 -1.220866 0.085967 173 162 81
0.262087 -1.245767 0.089887 174 161 80
0.270047 -1.227527 0.091546 174 161 80
0.283148 -1.232579 0.094500 174 161 80
0.299932 -1.253059 0.098375 174 161 80
0.315367 -1.265525 0.101899 174 161 80
0.340987 -1.316473 0.107939 174 160 80
0.357286 -1.328461 0.111655 174 160 80
0.370579 -1.328727 0.114627 174 160 80
0.381443 -1.321264 0.117011 174 160 80
0.384341 -1.286904 0.117448 174 160 80
0.400927 -1.298301 0.121228 174 160 80
0.427331 -1.339937 0.127393 175 159 79
0.449718 -1.365960 0.132564 175 159 79
0.478853 -1.410611 0.139360 175 159 79
0.571506 -1.584550 0.161170 176 157 78
1.047760 -2.525743 0.273598 179 151 75
1.086179 -2.552244 0.282383 179 151 75
1.119208 -2.563439 0.289870 179 150 75
1.153733 -2.578060 0.297715 179 150 75
1.187393 -2.588414 0.305343 179 150 75
1.226442 -2.609141 0.314245 180 149 74
1.272453 -2.643899 0.324795 180 148 74
1.314360 -2.667069 0.334357 180 148 74
1.349163 -2.675708 0.342243 180 148 74
1.392006 -2.697790 0.352014 181 147 73
1.435375 -2.719278 0.361903 181 146 73
1.475009 -2.733438 0.370914 181 146 73
1.521263 -2.757236 0.381471 182 145 72
1.565655 -2.777203 0.391591 182 145 72
1.579209 -2.741236 0.394456 182 145 72
1.622532 -2.756560 0.404313 182 144 72
1.712956 -2.849808 0.425216 183 143 71
1.757830 -2.863480 0.435419 183 142 71
1.814161 -2.893012 0.448293 183 142 71
1.859989 -2.905332 0.458709 184 141 70
1.914901 -2.930296 0.471245 184 141 70
1.957207 -2.934667 0.480831 184 140 70
2.035523 -2.990895 0.498820 185 139 69
2.083334 -3.000303 0.509680 185 138 69
2.071830 -2.925012 0.506707 185 139 69
1.770706 -2.311393 0.435578 183 142 71
1.384547 -1.674651 0.345113 181 147 73
1.399892 -1.661132 0.348530 181 147 73
1.448965 -1.686149 0.359771 181 147 73
1.404382 -1.603695 0.349291 181 147 73
1.392700 -1.560541 0.346450 181 147 73
1.430972 -1.573221 0.355191 181 147 73
1.461526 -1.576618 0.362142 181 146 73
1.473248 -1.559493 0.364730 181 146 73
1.468323 -1.525239 0.363467 181 146 73
1.507216 -1.536243 0.372347 181 146 73
1.560684 -1.560284 0.384592 182 145 72
1.543932 -1.514716 0.380599 182 145 72
1.529330 -1.472346 0.377109 181 146 73
1.562908 -1.476368 0.384758 182 145 72
1.614074 -1.495929 0.396468 182 145 72
1.563503 -1.421940 0.384679 182 145 72
1.585349 -1.414565 0.389620 182 145 72
1.639860 -1.435396 0.402099 182 144 72
1.620307 -1.390944 0.397481 182 145 72
1.590796 -1.339703 0.390575 182 145 72
1.636489 -1.351746 0.401018 182 144 72
2.182500 -1.732834 0.526694 186 137 68
2.182805 -1.699528 0.526645 186 137 68
2.176433 -1.661603 0.525061 185 138 69
2.125709 -1.590620 0.513260 185 138 69
1.946934 -1.400156 0.471885 184 140 70
1.972354 -1.390613 0.477647 184 140 70
1.994766 -1.378118 0.482713 184 140 70
1.964796 -1.330484 0.475729 184 140 70
1.986551 -1.318235 0.480650 184 140 70
2.015067 -1.309599 0.487123 184 140 70
2.053322 -1.307210 0.495839 185 139 69
2.185274 -1.361878 0.526097 185 138 69
2.220944 -1.355319 0.534213 186 137 68
2.216458 -1.323688 0.533094 186 137 68
2.211369 -1.292662 0.531843 186 137 68
2.226569 -1.273115 0.535253 186 137 68
2.224271 -1.244233 0.534647 186 137 68
2.221643 -1.215506 0.533967 186 137 68
2.211974 -1.182846 0.531668 186 137 68
2.215609 -1.158128 0.532431 186 137 68
2.194739 -1.120592 0.527564 186 137 68
2.204763 -1.099665 0.529797 186 137 68
2.228876 -1.085095 0.535262 186 137 68
2.238578 -1.063846 0.537422 186 137 68
2.230496 -1.033884 0.535498 186 137 68
2.236167 -1.011012 0.536736 186 137 68
2.230867 -0.983394 0.535457 186 137 68
2.232620 -0.958646 0.535795 186 137 68
2.215902 -0.926817 0.531900 186 137 68
2.227956 -0.906773 0.534604 186 137 68
2.239687 -0.886979 0.537237 186 137 68
2.218538 -0.854014 0.532328 186 137 68
2.226155 -0.832875 0.534020 186 137 68
2.233720 -0.811263 0.535697 186 137 68
2.248327 -0.792577 0.538992 186 137 68
2.247989 -0.768633 0.538862 186 137 68
2.251251 -0.745587 0.539556 186 137 68
2.257889 -0.724142 0.541026 186 137 68
2.268185 -0.703384 0.543333 186 137 68
2.278184 -0.682901 0.545574 186 136 68
2.288121 -0.661877 0.547799 186 136 68
2.286476 -0.637991 0.547374 186 136 68
2.280930 -0.612771 0.546054 186 136 68
2.282687 -0.589666 0.546407 186 136 68
2.272949 -0.563359 0.544126 186 137 68
2.145948 -0.487715 0.514949 185 138 69
2.138977 -0.464032 0.513307 185 138 69
2.143155 -0.443281 0.514220 185 138 69
5.674879 -0.999667 1.322381 207 94 47
5.502928 -0.914661 1.282922 206 96 48
5.345496 -0.834521 1.246786 205 98 49
5.213978 -0.762447 1.216594 204 100 50
5.077876 -0.691555 1.185352 203 102 51
4.948679 -0.624392 1.155697 203 103 51
4.795362 -0.558001 1.120535 202 105 52
4.722813 -0.502458 1.103848 201 106 53
4.750531 -0.458974 1.110103 201 106 53
4.777940 -0.414143 1.116281 202 105 52
4.793216 -0.368778 1.119690 202 105 52
4.808139 -0.322294 1.123012 202 105 52
4.842100 -0.276662 1.130686 202 105 52
4.863922 -0.230710 1.135590 202 104 52
4.893154 -0.183779 1.142182 202 104 52
4.921930 -0.137175 1.148675 202 104 52
4.872322 -0.087740 1.137245 202 104 52
6.506980 0.009900 1.510641 212 84 42
6.039599 0.104734 1.432506 210 88 44
5.882651 0.157972 1.395813 209 90 45
5.690203 0.207985 1.350838 208 93 46
5.396197 0.249615 1.282181 206 96 48
5.409243 0.302747 1.285142 206 96 48
5.659174 0.426800 1.343259 208 93 46
5.655024 0.481599 1.342205 208 93 46
5.786138 0.549227 1.372689 209 91 45
5.807988 0.608086 1.377693 209 91 45
5.929931 0.678928 1.406031 209 90 45
6.553821 0.879087 1.551268 213 82 41
6.634216 0.955287 1.569902 214 81 40
6.767900 1.040198 1.600959 215 79 39
6.827325 1.117017 1.614697 215 78 39
7.162309 1.314453 1.692526 217 74 37
7.142296 1.382276 1.687741 217 74 37
7.110211 1.447496 1.680143 217 75 37
7.077566 1.512218 1.672414 217 75 37
7.067205 1.581543 1.669875 217 75 37
7.052403 1.649914 1.666300 217 75 37
7.018022 1.713514 1.658164 216 76 38
1.834031 0.524774 0.450634 183 142 71
1.818001 0.538901 0.446868 183 142 71
1.790580 0.549666 0.440448 183 142 71
1.766849 0.561127 0.434887 183 142 71
1.757916 0.577035 0.432770 183 143 71
1.759951 0.596572 0.433206 183 143 71
1.747027 0.611054 0.430160 183 143 71
1.745026 0.629305 0.429655 183 143 71
1.753840 0.651643 0.431666 183 143 71
1.762398 0.674207 0.433616 183 143 71
1.748862 0.688425 0.430425 183 143 71
1.724344 0.698053 0.424680 183 143 71
1.696194 0.705769 0.418090 183 143 71
1.678854 0.717602 0.414015 182 144 72
1.668618 0.732299 0.411591 182 144 72
1.672540 0.753270 0.412458 182 144 72
1.665692 0.769172 0.410823 182 144 72
1.658567 0.785306 0.409120 182 144 72
1.619573 0.786028 0.400011 182 144 72
1.608922 0.799687 0.397491 182 145 72
1.566590 0.797550 0.387607 182 145 72
1.587023 0.827169 0.392305 182 145 72
1.593353 0.849610 0.393728 182 145 72
1.765919 0.985184 0.433698 183 143 71
1.770443 1.010031 0.434688 183 143 71
1.734154 1.011085 0.426205 183 143 71
1.684338 1.003830 0.414580 182 144 72
1.654937 1.007917 0.407695 182 144 72
1.635791 1.017436 0.403192 182 144 72
1.626391 1.033269 0.400949 182 144 72
1.603659 1.040482 0.395611 182 145 72
1.584395 1.049227 0.391081 182 145 72
1.558418 1.053587 0.384991 182 145 72
1.555165 1.073120 0.384170 182 145 72
1.545443 1.087892 0.381851 182 145 72
1.525812 1.095983 0.377232 181 146 73
1.528399 1.120021 0.377761 181 146 73
1.511947 1.129839 0.373879 181 146 73
1.529717 1.165878 0.377921 181 146 73
1.550068 1.204769 0.382557 182 145 72
1.563663 1.239276 0.385624 182 145 72
1.518715 1.226967 0.375140 181 146 73
1.492182 1.229165 0.368917 181 146 73
1.456683 1.223378 0.360620 181 147 73
1.430624 1.224427 0.354512 181 147 73
1.425285 1.243432 0.353192 181 147 73
1.425624 1.267669 0.353183 181 147 73
1.405378 1.273276 0.348417 181 147 73
1.422667 1.313561 0.352320 181 147 73
1.396174 1.313828 0.346106 181 147 73
1.409974 1.351599 0.349199 181 147 73
1.400349 1.367980 0.346878 181 147 73
1.406893 1.401478 0.348279 181 147 73
1.399295 1.420941 0.346417 181 147 73
1.372457 1.420290 0.340119 180 148 74
1.356653 1.430692 0.336366 180 148 74
1.324595 1.423590 0.328866 180 148 74
1.276527 1.398746 0.317676 180 149 74
1.268936 1.416960 0.315816 180 149 74
1.274207 1.449975 0.316914 180 149 74
1.273556 1.477464 0.316641 180 149 74
1.257395 1.486751 0.312801 180 149 74
1.238644 1.492816 0.308364 180 149 74
1.214883 1.492521 0.302776 179 150 75
1.188509 1.489025 0.296585 179 150 75
1.177256 1.503616 0.293870 179 150 75
1.226335 1.596529 0.304998 179 150 75
1.286305 1.741231 0.318446 180 149 74
1.242304 1.715174 0.308202 180 149 74
1.191989 1.678740 0.296519 179 150 75
1.151267 1.654696 0.287035 179 151 75
1.124837 1.649443 0.280829 179 151 75
1.091970 1.633944 0.273153 179 151 75
1.072304 1.638042 0.268492 178 152 76
1.055092 1.645050 0.264395 178 152 76
1.042087 1.658585 0.261257 178 152 76
1.041465 1.692279 0.260939 178 152 76
1.019446 1.692312 0.255737 178 152 76
1.030235 1.746572 0.258006 178 152 76
1.014181 1.756503 0.254160 178 152 76
1.019330 1.804481 0.255124 178 152 76
1.006609 1.821254 0.252027 178 152 76
0.999368 1.848422 0.250170 178 153 76
1.004789 1.900194 0.251174 178 152 76
1.007182 1.948881 0.251476 178 152 76
1.007294 1.994057 0.251256 178 152 76
2.099052 4.788901 0.494412 185 139 69
2.064486 4.830987 0.485967 184 140 70
2.000158 4.802954 0.470857 184 141 70
1.954550 4.818415 0.459936 184 141 70
1.914709 4.848244 0.450297 183 142 71
1.888834 4.914933 0.443757 183 142 71
1.853506 4.959141 0.435098 183 142 71
1.779303 4.898166 0.417812 183 143 71
1.736998 4.922695 0.407601 182 144 72
1.711257 4.995890 0.401037 182 144 72
1.656565 4.985734 0.388077 182 145 72
1.612029 5.005345 0.377351 181 146 73
1.569666 5.032154 0.367095 181 146 73
1.520011 5.035661 0.355239 181 147 73
1.476042 5.057812 0.344620 181 147 73
1.449196 5.141033 0.337705 180 148 74
1.403073 5.158681 0.326590 180 148 74
1.358789 5.183616 0.315865 180 149 74
1.311228 5.196533 0.304427 179 150 75
1.261661 5.201226 0.292557 179 150 75
1.205503 5.396050 0.277912 179 151 75
1.152647 5.391841 0.265297 178 152 76
1.167484 7.014851 0.258512 178 152 76
1.109388 7.065300 0.244261 178 153 76
1.044014 7.071735 0.228542 177 154 77
0.792834 6.630616 0.171106 176 157 78
0.714824 6.482949 0.153325 175 158 79
0.636089 6.929663 0.131498 175 159 79
0.580874 7.035119 0.117532 174 160 80
0.360413 5.636055 0.073610 173 162 81
0.305867 5.587351 0.060795 173 163 81
0.258714 5.697968 0.048713 172 164 82
0.213334 5.884065 0.036560 172 164 82
0.158499 5.817838 0.023774 172 165 82
0.104127 5.763095 0.011020 171 166 83
0.050929 5.723819 -0.001558 171 166 83
-0.001529 5.700029 -0.014063 171 167 83
-0.054056 5.735728 -0.026980 170 168 84
-0.106671 5.738917 -0.039711 170 168 84
-0.159779 5.757589 -0.052668 170 169 84
-0.210937 5.711786 -0.064735 169 170 85
-0.263255 5.709457 -0.077373 169 170 85
-0.317502 5.742560 -0.090715 169 171 85
-0.370096 5.739196 -0.103423 168 172 86
-0.427009 5.795146 -0.117570 168 173 86
-0.483346 5.830569 -0.131448 168 173 86
-0.546907 5.937083 -0.147545 167 174 87
-0.598873 5.907613 -0.159952 167 175 87
-0.658197 5.949198 -0.174610 166 176 88
-0.723061 6.029847 -0.190870 166 177 88
-0.781318 6.046321 -0.205118 166 177 88
-0.841032 6.070117 -0.219771 165 178 89
-0.879160 5.943035 -0.228213 165 179 89
-0.918123 5.835508 -0.236990 165 179 89
-0.965001 5.786894 -0.248074 164 180 90
-1.009001 5.726088 -0.258386 164 180 90
-1.033829 5.566738 -0.263408 164 181 90
-1.057353 5.415274 -0.268169 164 181 90
-1.118077 5.459543 -0.283236 163 182 91
-1.265695 5.651184 -0.320411 162 184 92
-1.311974 5.615297 -0.331466 162 184 92
-1.365231 5.610054 -0.344420 162 185 92
-1.415607 5.596790 -0.356627 161 186 93
-1.475905 5.617530 -0.371471 161 186 93
-1.709368 6.052528 -0.431169 159 190 95
-1.772544 6.062453 -0.446665 159 191 95
-2.805003 8.985106 -0.716907 152 205 102
-2.911597 9.033332 -0.743270 151 207 103
-3.022118 9.083518 -0.770611 150 208 104
-3.135904 9.148556 -0.798854 149 210 105
-3.250028 9.204093 -0.827129 149 211 105
-3.365234 9.262569 -0.855696 148 213 106
-3.488918 9.333930 -0.886423 147 214 107
-3.529883 9.188677 -0.895610 147 215 107
-3.612330 9.154599 -0.915628 146 216 108
-3.669130 9.052645 -0.928965 146 217 108
-3.722866 8.951081 -0.941564 146 217 108
-3.775035 8.844936 -0.953756 145 218 109
-3.816144 8.721041 -0.963143 145 219 109
-3.871611 8.633435 -0.976270 145 219 109
-3.914010 8.515903 -0.986021 144 220 110
-3.954869 8.402634 -0.995429 144 220 110
-4.005782 8.310098 -1.007429 144 221 110
-4.050447 8.210926 -1.017866 143 222 111
-4.091886 8.108073 -1.027496 143 222 111
-4.144109 8.025582 -1.039895 143 223 111
-4.188281 7.933019 -1.050269 143 223 111
-4.232477 7.839546 -1.060646 142 224 112
-4.268273 7.736265 -1.068914 142 224 112
-4.312313 7.650273 -1.079311 142 225 112
-4.352501 7.556447 -1.088720 141 226 113
-4.394109 7.470158 -1.098529 141 226 113
-4.429671 7.372729 -1.106793 141 226 113
-4.477106 7.299750 -1.118121 141 227 113
-4.508900 7.202975 -1.125475 140 228 114
-4.549074 7.118770 -1.134963 140 228 114
-4.593402 7.045216 -1.145541 140 229 114
-4.631404 6.960700 -1.154504 140 229 114
-4.664880 6.873639 -1.162347 139 230 115
-4.698342 6.785696 -1.170184 139 230 115
-4.738598 6.711508 -1.179777 139 230 115
-4.791784 6.656413 -1.192664 139 231 115
-4.805738 6.545781 -1.195588 139 231 115
-4.876200 6.515529 -1.212876 138 232 116
-4.902090 6.423863 -1.218853 138 233 116
-4.930514 6.339408 -1.225500 138 233 116
-4.972558 6.273553 -1.235609 137 234 117
-5.009933 6.200392 -1.244531 137 234 117
-5.041394 6.120967 -1.251965 137 234 117
-5.077948 6.046624 -1.260684 137 235 117
-5.112569 5.973045 -1.268937 137 235 117
-5.152482 5.904357 -1.278524 136 236 118
-5.187976 5.833418 -1.287016 136 236 118
-4.420811 4.694254 -1.092033 141 226 113
-4.535293 4.724273 -1.120547 141 227 113
-4.796875 4.810327 -1.185789 139 231 115
-4.863143 4.785647 -1.202138 138 232 116
-4.974661 4.803876 -1.229891 138 233 116
-4.953563 4.692192 -1.224217 138 233 116
-4.987665 4.635854 -1.232471 138 233 116
-4.987098 4.546558 -1.231990 138 233 116
-4.943567 4.421885 -1.220714 138 233 116
-4.972024 4.363321 -1.227569 138 233 116
-5.060115 4.354994 -1.249423 137 234 117
-5.078763 4.287929 -1.253818 137 234 117
-5.130612 4.247538 -1.266559 137 235 117
-5.087019 4.130682 -1.255315 137 235 117
-5.130751 4.086010 -1.266035 137 235 117
-5.159344 4.027845 -1.272944 136 236 118
-5.202221 3.982354 -1.283456 136 236 118
-5.245391 3.935446 -1.294036 136 237 118
-5.268561 3.875055 -1.299604 136 237 118
-5.341946 3.851264 -1.317787 135 238 119
-5.307225 3.748503 -1.308817 136 237 118
-5.244705 3.629891 -1.292888 136 237 118
-0.521326 0.294904 -0.106974 168 172 86
-0.530825 0.293692 -0.109338 168 172 86
-0.605071 0.320115 -0.127907 168 173 86
-0.656050 0.331439 -0.140641 167 174 87
-0.680082 0.335409 -0.146640 167 174 87
-5.569141 2.568028 -1.370795 134 241 120
-5.659977 2.544261 -1.393386 133 242 121
-5.708017 2.500170 -1.405263 133 243 121
-1.869614 0.753564 -0.444194 159 190 95
-1.829297 0.716896 -0.434059 159 190 95
-1.853973 0.706094 -0.440191 159 190 95
-1.831147 0.677270 -0.434437 159 190 95
-1.800633 0.646317 -0.426761 160 189 94
-1.791770 0.623716 -0.424504 160 189 94
-1.823211 0.615066 -0.432329 159 190 95
-1.910124 0.624031 -0.454028 159 191 95
-1.918881 0.505764 -0.455986 159 191 95
-1.949804 0.493852 -0.463679 159 191 95
-1.961795 0.476782 -0.466641 158 192 96
-1.852605 0.430922 -0.439313 159 190 95
-1.886813 0.419726 -0.447829 159 191 95
-1.920979 0.407904 -0.456333 159 191 95
-1.955092 0.395456 -0.464824 158 192 96
-2.225028 0.361218 -0.532126 157 195 97
-2.239815 0.340998 -0.535781 157 195 97
-2.269751 0.323117 -0.543222 156 196 98
-2.272613 0.301108 -0.543901 156 196 98
-2.286834 0.280492 -0.547417 156 196 98
-2.335643 0.263133 -0.559568 156 197 98
-2.372666 0.244494 -0.568780 156 197 98
-2.394130 0.223294 -0.574103 156 197 98
-2.361261 0.197169 -0.565860 156 197 98
-1.107410 0.028478 -0.252700 164 180 90
-1.088222 0.017463 -0.247895 164 180 90
-1.096099 0.006994 -0.249845 164 180 90
-1.065071 -0.003302 -0.242087 165 179 89
-1.057236 -0.013493 -0.240116 165 179 89
-1.064829 -0.023884 -0.241996 165 179 89
-0.504707 -0.040168 -0.102188 168 172 86
-0.500460 -0.044575 -0.101122 168 172 86
-0.515484 -0.050928 -0.104862 168 172 86
-0.499569 -0.054092 -0.100885 168 172 86
-0.506764 -0.059810 -0.102672 168 172 86
-0.506197 -0.064676 -0.102523 168 172 86
-0.505596 -0.069446 -0.102366 168 172 86
-0.501099 -0.073727 -0.101236 168 172 86
-0.508076 -0.079756 -0.102968 168 172 86
-0.503510 -0.083897 -0.101822 168 172 86
-0.487426 -0.085995 -0.097804 168 172 86
-0.505708 -0.094275 -0.102353 168 172 86
-0.504842 -0.099039 -0.102130 168 172 86
-0.522936 -0.107854 -0.106631 168 172 86
-0.499149 -0.107888 -0.100694 168 172 86
-0.498161 -0.112589 -0.100439 168 172 86
-0.511108 -0.125900 -0.103647 168 172 86
-0.502430 -0.128760 -0.101476 168 172 86
-0.508742 -0.135606 -0.103040 168 172 86
-0.518670 -0.143820 -0.105502 168 172 86
-0.509863 -0.146623 -0.103298 168 172 86
-0.501026 -0.149356 -0.101086 168 172 86
-0.499640 -0.154162 -0.100731 168 172 86
-0.498211 -0.158953 -0.100365 168 172 86
-0.507815 -0.167427 -0.102746 168 172 86
-0.502554 -0.171119 -0.101425 168 172 86
-0.508308 -0.178546 -0.102846 168 172 86
-0.502998 -0.182081 -0.101513 168 172 86
-0.497636 -0.185617 -0.100166 168 172 86
-0.506815 -0.194622 -0.102439 168 172 86
-0.497778 -0.196588 -0.100178 168 172 86
-0.504840 -0.210752 -0.101910 168 172 86
-0.510048 -0.218695 -0.103193 168 172 86
-0.504465 -0.221998 -0.101791 168 172 86
-0.505925 -0.228544 -0.102140 168 172 86
-0.521482 -0.241674 -0.105996 168 172 86
-0.498143 -0.236530 -0.100177 168 172 86
-0.502925 -0.244842 -0.101351 168 172 86
-0.514612 -0.256697 -0.104242 168 172 86
-0.505304 -0.258043 -0.101913 168 172 86
-0.502925 -0.262884 -0.101306 168 172 86
-0.514202 -0.275234 -0.104092 168 172 86
-0.508247 -0.278267 -0.102596 168 172 86
-0.519290 -0.290844 -0.105323 168 172 86
-0.516561 -0.295911 -0.104626 168 172 86
-0.517201 -0.302853 -0.104767 168 172 86
-0.507717 -0.303756 -0.102394 168 172 86
-0.514907 -0.314793 -0.104160 168 172 86
-0.502027 -0.313542 -0.100942 168 172 86
-0.492561 -0.314102 -0.098573 168 172 86
-0.512564 -0.333903 -0.103518 168 172 86
-0.499684 -0.332339 -0.100300 168 172 86
-0.503087 -0.341559 -0.101124 168 172 86
-0.506365 -0.350875 -0.101915 168 172 86
-0.493570 -0.348878 -0.098720 168 172 86
-0.496638 -0.358313 -0.099457 168 172 86
-0.515369 -0.379468 -0.104078 168 172 86
-0.518130 -0.389148 -0.104738 168 172 86
-0.511384 -0.391794 -0.103039 168 172 86
-0.523186 -0.408860 -0.105938 168 172 86
-0.510186 -0.406564 -0.102689 168 172 86
-0.503415 -0.408951 -0.100985 168 172 86
-0.484529 -0.401232 -0.096279 169 171 85
-1.417298 -1.277901 -0.326896 162 184 92
-1.434489 -1.318237 -0.331056 162 184 92
-1.419518 -1.329354 -0.327260 162 184 92
-1.390032 -1.326923 -0.319872 162 184 92
-1.372217 -1.334799 -0.315372 163 183 91
-1.340195 -1.328789 -0.307360 163 183 91
-1.298316 -1.388780 -0.296602 163 182 91
-1.266949 -1.380871 -0.288757 163 182 91
-1.241112 -1.378357 -0.282276 163 182 91
-0.778005 -0.930190 -0.167812 167 175 87
-0.784291 -0.956173 -0.169276 167 175 87
-0.785395 -0.976044 -0.169465 167 175 87
-0.773842 -0.980593 -0.166537 167 175 87
-0.762443 -0.984868 -0.163649 167 175 87
-0.748653 -0.985848 -0.160173 167 175 87
-0.744154 -0.999513 -0.158975 167 175 87
-0.725703 -0.993810 -0.154355 167 175 87
-0.716427 -1.000881 -0.151984 167 174 87
-0.707256 -1.007733 -0.149640 167 174 87
-0.693385 -1.008074 -0.146142 167 174 87
-0.688555 -1.021292 -0.144860 167 174 87
-0.672509 -1.018043 -0.140829 167 174 87
-0.661042 -1.021130 -0.137921 167 174 87
-0.655911 -1.034159 -0.136561 167 174 87
-0.644183 -1.037158 -0.133585 168 173 86
-0.628538 -1.033109 -0.129656 168 173 86
-0.624952 -1.049473 -0.128666 168 173 86
-0.611370 -1.048556 -0.125240 168 173 86
-0.605857 -1.061192 -0.123781 168 173 86
-0.592294 -1.060014 -0.120360 168 173 86
-0.580878 -1.062059 -0.117463 168 173 86
-0.565753 -1.056952 -0.113666 168 172 86
-0.563392 -1.076456 -0.112963 168 172 86
-0.550127 -1.074624 -0.109618 168 172 86
-0.538527 -1.076291 -0.106672 168 172 86
-0.527126 -1.077735 -0.103778 168 172 86
-0.522362 -1.093536 -0.102484 168 172 86
-0.505871 -1.083950 -0.098360 168 172 86
-0.504123 -1.106899 -0.097788 168 172 86
-0.489378 -1.100659 -0.094086 169 171 85
-0.480876 -1.108959 -0.091882 169 171 85
-0.469382 -1.109756 -0.088963 169 171 85
-0.460731 -1.117890 -0.086720 169 171 85
-0.449226 -1.118466 -0.083797 169 171 85
-0.447603 -1.145023 -0.083230 169 171 85
-0.435923 -1.145444 -0.080261 169 171 85
-0.419977 -1.134581 -0.076273 169 170 85
-0.408459 -1.134713 -0.073345 169 170 85
-0.400681 -1.146105 -0.071300 169 170 85
-0.391659 -1.153593 -0.068961 169 170 85
-0.383572 -1.164868 -0.066835 169 170 85
-0.371922 -1.164603 -0.063872 169 170 85
-0.361274 -1.168096 -0.061139 169 170 85
-0.350792 -1.171424 -0.058450 170 169 84
-0.341175 -1.178551 -0.055956 170 169 84
-0.327426 -1.170137 -0.052504 170 169 84
-0.318776 -1.180916 -0.050231 170 169 84
-0.309170 -1.187707 -0.047739 170 169 84
-0.299268 -1.194467 -0.045171 170 169 84
-0.288553 -1.197201 -0.042419 170 168 84
-0.275846 -1.192089 -0.039207 170 168 84
-0.267697 -1.206313 -0.037036 170 168 84
-0.254237 -1.197053 -0.033655 170 168 84
-0.245833 -1.211117 -0.031418 170 168 84
-0.237732 -1.229090 -0.029232 170 168 84
-0.226710 -1.231235 -0.026399 170 168 84
-0.214583 -1.229408 -0.023307 171 167 83
-0.202719 -1.227420 -0.020283 171 167 83
-0.193298 -1.241122 -0.017782 171 167 83
-0.181961 -1.242873 -0.014867 171 167 83
-0.171658 -1.252442 -0.012165 171 167 83
-0.161685 -1.265888 -0.009521 171 167 83
-0.149671 -1.263357 -0.006456 171 167 83
-0.136672 -1.252773 -0.003190 171 166 83
-0.126749 -1.269897 -0.000531 171 166 83
-0.114124 -1.259045 0.002640 171 166 83
-0.101707 -1.248061 0.005758 171 166 83
-0.092473 -1.280845 0.008344 171 166 83
-0.080311 -1.273627 0.011423 171 166 83
-0.068683 -1.274276 0.014418 172 165 82
-0.057372 -1.282806 0.017384 172 165 82
-0.045444 -1.283239 0.020456 172 165 82
-0.033905 -1.291546 0.023481 172 165 82
-0.022014 -1.283744 0.026493 172 165 82
-0.010354 -1.299825 0.029602 172 165 82
0.001443 -1.287793 0.032564 172 164 82
0.013490 -1.307643 0.035800 172 164 82
0.025328 -1.303379 0.038826 172 164 82
0.037485 -1.310993 0.042013 172 164 82
0.048994 -1.294500 0.044875 172 164 82
0.061422 -1.305872 0.048159 172 164 82
0.072369 -1.289173 0.050878 173 163 81
0.085801 -1.312270 0.054500 173 163 81
0.096514 -1.295356 0.057159 173 163 81
0.109033 -1.302249 0.060442 173 163 81
0.119750 -1.289116 0.063129 173 163 81
0.130662 -1.279867 0.065893 173 163 81
0.140249 -1.258581 0.068237 173 162 81
0.150237 -1.245187 0.070738 173 162 81
0.161061 -1.239633 0.073506 173 162 81
0.166675 -1.198379 0.074696 173 162 81
0.181839 -1.224277 0.078795 173 162 81
0.191080 -1.210547 0.081103 173 162 81
0.199409 -1.192810 0.083151 173 162 81
0.216909 -1.226073 0.087906 174 161 80
0.227338 -1.219909 0.090575 174 161 80
0.243957 -1.244975 0.095052 174 161 80
0.256127 -1.246377 0.098224 174 161 80
0.276694 -1.286697 0.103825 174 161 80
0.286639 -1.276088 0.106345 174 160 80
0.298270 -1.273165 0.109353 174 160 80
0.302928 -1.243076 0.110377 174 160 80
0.314257 -1.239996 0.113307 174 160 80
0.333600 -1.267695 0.118517 174 160 80
0.351552 -1.287375 0.123315 175 159 79
0.671605 -1.948899 0.210838 177 155 77
0.685004 -1.931063 0.214232 177 155 77
0.699841 -1.916747 0.218025 177 154 77
1.040361 -2.550602 0.310794 180 149 74
1.068214 -2.551259 0.318088 180 149 74
1.100468 -2.562752 0.326600 180 148 74
1.130236 -2.566366 0.334417 180 148 74
1.166300 -2.584317 0.343968 181 147 73
1.209919 -2.615990 0.355577 181 147 73
1.243975 -2.625516 0.364558 181 146 73
1.283085 -2.645553 0.374926 181 146 73
1.326654 -2.671928 0.386500 182 145 72
1.363146 -2.683790 0.396141 182 145 72
1.407762 -2.709000 0.407988 182 144 72
1.446895 -2.723336 0.418340 183 143 71
1.492564 -2.747329 0.430462 183 143 71
1.538799 -2.770671 0.442731 183 142 71
1.585118 -2.793639 0.455025 184 141 70
1.614519 -2.784828 0.462706 184 141 70
1.600235 -2.539211 0.457691 184 141 70
1.595423 -2.480193 0.456128 184 141 70
1.622748 -2.470761 0.463273 184 141 70
1.640799 -2.448187 0.467915 184 141 70
1.124595 -1.551658 0.327579 180 148 74
1.138699 -1.540554 0.331245 180 148 74
1.217062 -1.614283 0.352254 181 147 73
1.215113 -1.580188 0.351581 181 147 73
1.175765 -1.500011 0.340834 180 148 74
1.167170 -1.460731 0.338389 180 148 74
1.150473 -1.412602 0.333766 180 148 74
1.209005 -1.455516 0.349408 181 147 73
1.189037 -1.404574 0.343912 181 147 73
1.201796 -1.392850 0.347231 181 147 73
1.211839 -1.378051 0.349821 181 147 73
1.235125 -1.377584 0.355970 181 147 73
1.287554 -1.408901 0.369957 181 146 73
1.359475 -1.459426 0.389177 182 145 72
1.375439 -1.448884 0.393354 182 145 72
1.380375 -1.426879 0.394571 182 145 72
1.376973 -1.396279 0.393547 182 145 72
1.336619 -1.330174 0.382612 182 145 72
1.354324 -1.322492 0.387266 182 145 72
1.414622 -1.355244 0.403348 182 144 72
1.349766 -1.268639 0.385852 182 145 72
1.289019 -1.188996 0.369473 181 146 73
1.311464 -1.186813 0.375407 181 146 73
1.328106 -1.179102 0.379786 182 145 72
1.421224 -1.213556 0.404571 182 144 72
1.393118 -1.166950 0.396961 182 145 72
1.415824 -1.163171 0.402964 182 144 72
1.450998 -1.168591 0.412303 182 144 72
1.555709 -1.204491 0.440177 183 142 71
1.414229 -1.052430 0.402170 182 144 72
1.398462 -1.020145 0.397886 182 145 72
1.394970 -0.997331 0.396887 182 145 72
1.397429 -0.979402 0.397485 182 145 72
1.396628 -0.959054 0.397210 182 145 72
1.398665 -0.941236 0.397698 182 145 72
1.387607 -0.914638 0.394685 182 145 72
1.405582 -0.907590 0.399436 182 144 72
1.403742 -0.887798 0.398892 182 144 72
1.408457 -0.871961 0.400098 182 144 72
1.436231 -0.870474 0.407467 182 144 72
1.474314 -0.874211 0.417587 183 143 71
1.795101 -1.018020 0.503145 185 139 69
1.797319 -0.996963 0.503680 185 139 69
1.778926 -0.964517 0.498711 185 139 69
1.773715 -0.940113 0.497266 185 139 69
1.775294 -0.919142 0.497633 185 139 69
1.776497 -0.898547 0.497902 185 139 69
1.773994 -0.876288 0.497185 185 139 69
1.785413 -0.860572 0.500180 185 139 69
1.793040 -0.843386 0.502167 185 139 69
1.793582 -0.822569 0.502262 185 139 69
1.772472 -0.792647 0.496586 185 139 69
1.776060 -0.773718 0.497496 185 139 69
1.768599 -0.750571 0.495463 185 139 69
1.775367 -0.733230 0.497223 185 139 69
1.789064 -0.719034 0.500834 185 139 69
1.784573 -0.697591 0.499596 185 139 69
1.787227 -0.678722 0.500262 185 139 69
1.778659 -0.656169 0.497939 185 139 69
1.751680 -0.626999 0.490708 185 139 69
1.775546 -0.616491 0.497032 185 139 69
1.766383 -0.594156 0.494552 185 139 69
1.767939 -0.575967 0.494931 185 139 69
1.773115 -0.558641 0.496274 185 139 69
1.774332 -0.540460 0.496564 185 139 69
1.782814 -0.524486 0.498791 185 139 69
1.768878 -0.501745 0.495043 185 139 69
1.773295 -0.484734 0.496188 185 139 69
1.758905 -0.462448 0.492321 185 139 69
1.774314 -0.448052 0.496392 185 139 69
1.770795 -0.428851 0.495423 185 139 69
1.774630 -0.411504 0.496412 185 139 69
1.763187 -0.390779 0.493333 185 139 69
1.766675 -0.373507 0.494232 185 139 69
1.766151 -0.355761 0.494064 185 139 69
1.754115 -0.335562 0.490829 185 139 69
1.772331 -0.321133 0.495650 185 139 69
1.763743 -0.301824 0.493334 185 139 69
1.747322 -0.281483 0.488934 184 140 70
1.742120 -0.263535 0.487523 184 140 70
4.808532 -0.582776 1.303523 207 95 47
4.713628 -0.525537 1.278199 206 97 48
4.725917 -0.480266 1.281397 206 96 48
4.749352 -0.435862 1.287561 206 96 48
4.768542 -0.390728 1.292595 206 96 48
4.795044 -0.345814 1.299575 207 95 47
4.813380 -0.300808 1.304388 207 95 47
4.846809 -0.255421 1.313210 207 95 47
4.868249 -0.208912 1.318842 207 94 47
4.885408 -0.161879 1.323334 207 94 47
4.921464 -0.114982 1.332853 207 94 47
6.128779 -0.024616 1.653813 216 76 38
6.136484 0.035257 1.655773 216 76 38
5.971498 0.152251 1.630775 216 77 38
5.857918 0.206642 1.600126 215 79 39
5.740029 0.258656 1.568320 214 81 40
5.594724 0.306909 1.529140 213 83 41
5.834577 0.377239 1.593590 215 79 39
5.911814 0.440242 1.614283 215 78 39
5.876767 0.495386 1.604767 215 79 39
5.852785 0.550971 1.598229 215 79 39
5.839846 0.607328 1.594660 215 79 39
5.807203 0.661298 1.585792 214 80 40
5.831633 0.721797 1.592274 215 79 39
5.889955 0.787435 1.607870 215 79 39
5.936116 0.852627 1.620192 215 78 39
6.855352 1.190102 1.867071 222 64 32
6.844244 1.257012 1.863973 222 65 32
6.870498 1.331160 1.870918 222 64 32
6.888428 1.404388 1.875623 222 64 32
5.713936 1.281571 1.559691 214 81 40
1.841890 0.509193 0.518741 185 138 69
1.770157 0.508038 0.499432 185 139 69
1.743181 0.518743 0.492150 185 139 69
1.727280 0.532379 0.487844 184 140 70
1.711287 0.545750 0.483512 184 140 70
1.680476 0.554019 0.475201 184 140 70
1.657012 0.564227 0.468864 184 141 70
1.618875 0.568902 0.458586 184 141 70
1.606338 0.582100 0.455183 184 141 70
1.590070 0.593752 0.450779 183 142 71
1.573734 0.605138 0.446357 183 142 71
1.560944 0.617682 0.442886 183 142 71
1.591236 0.647526 0.450980 183 142 71
1.649793 0.689960 0.466660 184 141 70
1.643450 0.706087 0.464916 184 141 70
1.622615 0.716195 0.459280 184 141 70
1.623241 0.734957 0.459407 184 141 70
1.577691 0.732872 0.447142 183 142 71
1.574472 0.749960 0.446235 183 142 71
1.571213 0.766765 0.445318 183 142 71
1.560693 0.780387 0.442451 183 142 71
1.556997 0.797408 0.441413 183 142 71
1.525669 0.799737 0.432967 183 143 71
1.521766 0.816482 0.431873 183 143 71
1.510862 0.829486 0.428901 183 143 71
1.506797 0.845878 0.427764 183 143 71
1.482132 0.850934 0.421102 183 143 71
1.474332 0.865416 0.418961 183 143 71
1.536677 0.921807 0.435616 183 142 71
1.734949 1.085606 0.488626 184 140 70
1.734879 1.108832 0.488541 184 140 70
1.718369 1.121202 0.484054 184 140 70
1.691839 1.127182 0.476880 184 140 70
1.649191 1.121790 0.465391 184 141 70
1.629474 1.130928 0.460045 184 141 70
1.603159 1.135571 0.452930 183 142 71
1.580078 1.142085 0.446682 183 142 71
1.563519 1.152596 0.442181 183 142 71
1.568627 1.179582 0.443474 183 142 71
1.557837 1.194892 0.440511 183 142 71
1.503882 1.176147 0.426007 183 143 71
1.465534 1.168911 0.415676 182 144 72
1.442671 1.173356 0.409486 182 144 72
1.410797 1.169977 0.400888 182 144 72
1.394303 1.178447 0.396404 182 145 72
1.392457 1.199712 0.395831 182 145 72
1.399205 1.228789 0.397551 182 145 72
1.396972 1.250019 0.396872 182 145 72
1.379739 1.258374 0.392184 182 145 72
1.371123 1.274502 0.389794 182 145 72
1.365410 1.293020 0.388182 182 145 72
1.364929 1.317225 0.387960 182 145 72
1.378167 1.355278 0.391394 182 145 72
1.363236 1.365697 0.387316 182 145 72
1.356047 1.384843 0.385294 182 145 72
1.329743 1.383918 0.378179 181 146 73
1.303345 1.382840 0.371037 181 146 73
1.271965 1.375369 0.362572 181 146 73
1.254104 1.381954 0.357708 181 147 73
1.241490 1.394183 0.354241 181 147 73
1.259718 1.442040 0.358975 181 147 73
1.259418 1.469251 0.358778 181 147 73
1.240921 1.475505 0.353738 181 147 73
1.212353 1.469386 0.346021 181 147 73
1.193719 1.475299 0.340942 180 148 74
1.177798 1.483849 0.336587 180 148 74
1.176427 1.510869 0.336093 180 148 74
1.295794 1.729529 0.367477 181 146 73
1.233082 1.678569 0.350693 181 147 73
1.183006 1.642553 0.337268 180 148 74
1.138274 1.612161 0.325266 180 148 74
1.107490 1.600724 0.316959 180 149 74
1.088437 1.604972 0.311762 180 149 74
1.069406 1.608990 0.306572 180 149 74
1.063415 1.632649 0.304827 179 150 75
1.050672 1.646334 0.301294 179 150 75
1.043820 1.670163 0.299311 179 150 75
1.028598 1.680323 0.295119 179 150 75
1.023519 1.707302 0.293599 179 150 75
1.028120 1.751399 0.294625 179 150 75
1.031708 1.795920 0.295369 179 150 75
1.029015 1.830123 0.294457 179 150 75
1.031556 1.874846 0.294914 179 150 75
1.027705 1.909305 0.293681 179 150 75
1.019277 1.937021 0.291235 179 150 75
1.003457 1.950452 0.286850 179 151 75
1.007213 2.002734 0.287590 179 151 75
1.018912 2.073066 0.290396 179 150 75
1.118049 2.384097 0.315725 180 149 74
2.075927 4.874564 0.563261 187 135 67
2.028489 4.887271 0.550223 186 136 68
1.973523 4.881038 0.535231 186 137 68
1.915107 4.867106 0.519334 185 138 69
1.902229 4.967387 0.515226 185 138 69
1.901641 5.105156 0.514256 185 138 69
1.836129 5.071063 0.496524 185 139 69
1.698437 4.974030 0.459392 184 141 70
1.654433 4.994175 0.447214 183 142 71
1.621225 5.048059 0.437787 183 142 71
1.563403 5.025590 0.422069 183 143 71
1.507290 5.006262 0.406797 182 144 72
1.474060 5.062879 0.397334 182 145 72
1.447529 5.146168 0.389541 182 145 72
1.393367 5.133112 0.374751 181 146 73
1.345660 5.142622 0.361591 181 146 73
1.300844 5.163267 0.349150 181 147 73
1.254828 5.179611 0.336402 180 148 74
1.214995 5.222735 0.325181 180 148 74
1.184103 5.308407 0.316147 180 149 74
1.135830 5.319721 0.302796 179 150 75
1.112348 5.451887 0.295498 179 150 75
1.045128 5.372302 0.277498 179 151 75
0.992624 5.362612 0.263100 178 152 76
0.986107 7.119724 0.250030 178 153 76
0.923975 7.148818 0.232696 177 154 77
0.844607 7.038388 0.211499 177 155 77
0.504412 6.808342 0.118979 174 160 80
0.444393 6.840858 0.102162 174 161 80
0.262584 5.641624 0.059674 173 163 81
0.216519 5.803827 0.045855 172 164 82
0.165671 5.869624 0.031336 172 164 82
0.110176 5.762969 0.016654 172 165 82
0.057522 5.735757 0.002234 171 166 83
0.005347 5.696031 -0.011977 171 167 83
-0.046496 5.711796 -0.026464 170 168 84
-0.099141 5.759044 -0.041386 170 168 84
-0.151640 5.765780 -0.056006 170 169 84
-0.203035 5.736026 -0.070086 169 170 85
-0.253555 5.697791 -0.083873 169 171 85
-0.305287 5.695024 -0.098234 168 172 86
-0.360682 5.751620 -0.114007 168 172 86
-0.416849 5.803643 -0.129969 168 173 86
-0.472719 5.839129 -0.145746 167 174 87
-0.535942 5.937651 -0.163986 167 175 87
-0.589055 5.924150 -0.178687 166 176 88
-0.644108 5.930010 -0.194060 166 177 88
-0.707665 6.006778 -0.212267 165 178 89
-0.763178 6.007480 -0.227746 165 179 89
-0.825731 6.059110 -0.245522 164 180 90
-0.878427 6.034905 -0.260065 164 180 90
-0.910711 5.879899 -0.268075 164 181 90
-0.955699 5.819437 -0.280245 164 181 90
-1.000349 5.762560 -0.292348 163 182 91
